-0.76321 -0.153226 4.0276
0.10881 -0.106501 4.54979
0.0923875 -0.0560326 4.48538
0.147364 -0.0449452 4.52245
-0.740985 -0.0348286 4.26664
0.00699339 -0.0193115 4.35633
-0.124092 -0.00787131 4.37378
-0.255319 -0.00282503 4.36228
0.159062 0.0195653 4.51106
0.00733567 0.0196536 4.40421
0.0443614 0.0165857 4.33646
-0.251869 0.0211442 4.30475
-0.0515797 0.0248678 4.37995
-0.0202644 0.0274026 4.41639
0.00255292 0.0274621 4.41746
0.167586 0.0407855 4.54073
-0.288881 0.0321547 4.3303
0.00234385 0.0344435 4.40658
-0.0347212 0.0391801 4.42038
-0.686898 0.0382909 4.34341
-0.105789 0.045933 4.41481
0.160842 0.053097 4.53054
-0.0579121 0.0456311 4.34025
-0.0279524 0.0486326 4.38544
-0.67875 0.0462948 4.33994
-0.206849 0.0463771 4.35457
-0.0709076 0.048632 4.34844
-0.0463112 0.0505568 4.42541
0.162226 0.0601026 4.52462
-0.085969 0.0532771 4.34692
-0.696443 0.051361 4.27025
0.15685 0.0658756 4.52046
-0.0396571 0.0624841 4.38049
-0.730386 0.0593849 4.33519
-0.0567449 0.0650769 4.41811
-0.0969593 0.0669962 4.34269
-0.110154 0.0695225 4.34452
0.00760339 0.0693624 4.40623
-0.118823 0.0789241 4.3752
-0.0207571 0.083613 4.3818
-0.0124533 0.0836292 4.35329
0.148981 0.0976378 4.52051
-0.638036 0.109843 4.53763
-0.26257 0.119016 4.60467
-0.0616768 0.122488 4.56116
-0.653942 0.117578 4.4215
-0.0567116 0.134624 4.56088
-0.146581 0.152673 4.53734
0.0435467 0.154118 4.56965
-0.690374 0.135402 4.26701
-0.0900191 0.169738 4.57137
-0.0684395 0.172345 4.54167
-0.138066 0.176502 4.53411
-0.119187 0.1766 4.53409
-0.0610941 0.179801 4.54414
-0.681688 0.156936 4.26636
-0.762548 0.160813 4.25286
-0.693683 0.164506 4.32827
-0.792186 0.172003 4.31733
-0.662386 0.194431 4.55341
-0.710716 0.171673 4.28182
-0.662273 0.199012 4.55298
-0.792095 0.182609 4.33518
-0.740528 0.17141 4.2326
-0.225263 0.172752 3.95366
-0.0897205 0.206965 4.53063
0.0978817 0.211387 4.5916
-0.180025 0.213989 4.53114
-0.28757 0.218147 4.56086
-0.0763235 0.218411 4.5483
-0.184608 0.220318 4.52785
-0.25304 0.224965 4.53257
-0.191693 0.227656 4.52065
-0.175587 0.228832 4.54023
-0.535579 0.226774 4.51306
-0.215138 0.233757 4.52325
-0.0532458 0.235839 4.53582
-0.657051 0.230052 4.51976
-0.661424 0.228976 4.4893
-0.284815 0.239748 4.52825
-0.0577382 0.243467 4.53338
-0.619738 0.239735 4.5225
-0.413453 0.24367 4.53222
-0.689445 0.231159 4.42721
-0.661093 0.232737 4.44158
-0.636939 0.241035 4.51472
-0.600535 0.239007 4.49437
-0.0532557 0.254354 4.57488
-0.712888 0.226004 4.3396
-0.716056 0.230357 4.33868
-0.226525 0.258107 4.53151
-0.0600255 0.263816 4.54012
0.082771 0.26948 4.59261
-0.650383 0.255827 4.5045
-0.476079 0.258114 4.50856
-0.228578 0.264219 4.51577
-0.50686 0.259344 4.5017
-0.662941 0.25659 4.44025
-0.542727 0.266424 4.5273
-0.651633 0.266333 4.51607
-0.557604 0.264792 4.49626
-0.279097 0.277505 4.52351
-0.658243 0.265975 4.45563
-0.0744394 0.286286 4.54341
-0.423957 0.287318 4.56812
-0.293317 0.287617 4.55078
-0.115652 0.287294 4.52785
-0.690783 0.268869 4.42275
-0.57044 0.281533 4.52238
-0.556586 0.28277 4.50611
-0.293115 0.294759 4.57092
-0.288114 0.296137 4.58126
-0.285875 0.296305 4.58274
-0.0580465 0.292608 4.53115
-0.415747 0.294386 4.56723
-0.669568 0.291748 4.48107
-0.0262354 0.309809 4.5448
-0.657713 0.287718 4.39463
-0.70975 0.285426 4.36892
-0.214028 0.321195 4.51678
-0.0177458 0.32796 4.5514
-0.779557 0.294443 4.32419
-0.0258124 0.338715 4.60497
-0.666573 0.310375 4.3923
-0.0355669 0.346029 4.60642
-0.0421853 0.363879 4.55759
-0.138513 0.368991 4.52542
-0.0404092 0.372007 4.54999
-0.651478 0.357439 4.50166
-0.654581 0.368353 4.49141
-0.0865123 0.388053 4.55598
-0.210991 0.389679 4.54257
-0.707591 0.362665 4.34902
-0.796648 0.380641 4.36168
-0.780472 0.37553 4.32241
-0.789965 0.386592 4.36455
-0.636188 0.408735 4.51585
-0.426125 0.416524 4.55202
-0.632445 0.41232 4.52602
-0.785878 0.410214 4.45215
-0.428599 0.420637 4.50798
-0.306753 0.424471 4.51652
-0.29759 0.429072 4.55642
-0.513421 0.427665 4.54555
-0.253629 0.42838 4.51551
-0.412078 0.427331 4.50666
-0.484726 0.42853 4.51884
-0.456865 0.427442 4.50299
-0.313686 0.434061 4.52371
-0.298287 0.437791 4.55377
-0.624142 0.425241 4.48672
-0.254071 0.439195 4.52861
-0.140031 0.451626 4.59866
-0.198493 0.444844 4.51646
-0.138146 0.447952 4.52717
-0.633197 0.448556 4.5661
-0.380767 0.446422 4.4966
-0.591345 0.441153 4.47095
-0.617344 0.443982 4.47172
-0.392234 0.451847 4.51205
-0.406432 0.455612 4.50902
-0.800106 0.452702 4.4439
-0.467989 0.464445 4.50078
-0.286961 0.489002 4.62921
-0.536957 0.46644 4.49028
-0.281606 0.480582 4.53897
-0.606394 0.468165 4.48694
-0.489434 0.479637 4.52609
-0.477023 0.48212 4.52624
-0.781691 0.477043 4.4183
-0.25111 0.495287 4.54044
-0.2825 0.508074 4.56574
-0.779082 0.492648 4.41754
-0.229629 0.510616 4.50433
-0.658574 0.512809 4.49858
-0.765633 -0.153795 4.03678
-0.764331 -0.121934 3.45799
0.145143 -0.0674575 4.54509
0.148008 -0.0254965 4.53607
0.0811669 -0.0270064 4.39787
0.0648814 -0.021231 4.39768
0.00631117 -0.0195868 4.36813
0.00564227 -0.0150252 4.34916
-0.144403 -0.00954112 4.3744
-0.122367 -0.00763408 4.36196
-0.0806119 0.00385912 4.37159
0.0078352 0.0110324 4.36205
0.159286 0.019475 4.51734
-0.0084498 0.0201946 4.42804
-0.257516 0.0223412 4.38583
-0.141967 0.0223681 4.3495
0.166076 0.0405729 4.53903
-0.0769871 0.0416339 4.34799
0.1606 0.0518713 4.52606
-0.106265 0.0461448 4.41523
0.0980213 0.0451799 4.37898
-0.695554 0.045765 4.34776
-0.201254 0.0426509 4.27554
-0.0720592 0.0500666 4.40233
-0.0169389 0.052961 4.41398
-0.706111 0.0527689 4.33256
-0.0634267 0.0556283 4.34898
-0.0852255 0.0612014 4.34692
-0.0661095 0.0606669 4.34121
-0.0412216 0.0641119 4.42288
0.00430241 0.0668312 4.35528
-0.111483 0.0715743 4.41179
-0.00155365 0.0757797 4.36153
-0.119039 0.0789458 4.35754
-0.145317 0.0749988 4.27142
-0.293384 0.106517 4.59501
0.108986 0.102977 4.50252
-0.63804 0.109892 4.54389
-0.26257 0.119016 4.60467
-0.00135362 0.128193 4.58111
0.0940466 0.124099 4.54468
-0.715158 0.136281 4.3161
-0.0623402 0.164235 4.54686
-0.699308 0.138184 4.32124
-0.139303 0.176847 4.53305
-0.12837 0.175932 4.53029
-0.663517 0.153052 4.27603
-0.678934 0.159384 4.28703
-0.256321 0.199465 4.59418
-0.663903 0.197819 4.56404
-0.780599 0.170774 4.2578
-0.0901062 0.205663 4.53265
-0.632713 0.205436 4.53321
-0.627774 0.210157 4.5741
-0.650014 0.209186 4.52317
-0.24749 0.219671 4.53994
-0.0851516 0.220783 4.53881
-0.609234 0.217603 4.53817
-0.603328 0.217698 4.53853
-0.787097 0.201407 4.3254
-0.193799 0.229177 4.54454
-0.176394 0.228455 4.53271
-0.0530819 0.235123 4.5347
-0.658205 0.234489 4.56879
-0.300899 0.238803 4.54384
-0.661872 0.229179 4.49532
-0.0598413 0.244053 4.53735
-0.663891 0.233313 4.45885
-0.617067 0.239374 4.51108
-0.592825 0.240099 4.51554
-0.565222 0.238666 4.49814
-0.530979 0.243481 4.53858
-0.689263 0.232069 4.43224
-0.634948 0.240465 4.49742
-0.714234 0.226186 4.34511
-0.715811 0.230175 4.33319
-0.64797 0.254286 4.48865
0.0815284 0.268331 4.56821
-0.262743 0.267786 4.5183
-0.551176 0.263816 4.50252
-0.643672 0.26411 4.48699
0.079485 0.292015 4.62474
-0.0757861 0.285693 4.53406
-0.706354 0.269649 4.42399
-0.561285 0.284896 4.54141
-0.653496 0.281603 4.49875
-0.284479 0.292666 4.53206
-0.0591994 0.292849 4.5286
-0.258154 0.304432 4.56512
-0.123917 0.302939 4.54223
-0.240023 0.304626 4.54226
-0.657943 0.306605 4.54487
-0.0137433 0.319559 4.58515
-0.259162 0.320998 4.58498
-0.679935 0.28627 4.31881
-0.204094 0.321486 4.54019
-0.787797 0.298066 4.36666
-0.778166 0.308927 4.33257
-0.124409 0.351818 4.50804
-0.113905 0.36044 4.53399
-0.036582 0.369212 4.57699
-0.135266 0.365392 4.53067
-0.652221 0.357434 4.50161
-0.110329 0.381872 4.54338
-0.211879 0.381629 4.53455
-0.0868687 0.387639 4.54986
-0.214499 0.392624 4.55371
-0.091851 0.404282 4.60762
-0.796027 0.380592 4.36224
-0.789488 0.386142 4.35856
-0.629019 0.408845 4.543
-0.613642 0.406994 4.51114
-0.662108 0.397629 4.4472
-0.633507 0.412752 4.53198
-0.423471 0.418273 4.55086
-0.625879 0.416679 4.5062
-0.639094 0.422462 4.50424
-0.412545 0.427162 4.50543
-0.483234 0.425945 4.49308
-0.294622 0.4326 4.50642
-0.617699 0.425447 4.48242
-0.404931 0.436526 4.52524
-0.253253 0.436634 4.5013
-0.1399 0.448369 4.53306
-0.640784 0.434313 4.46838
-0.624367 0.439513 4.4854
-0.524326 0.440557 4.51221
-0.148777 0.460279 4.59587
-0.540169 0.44416 4.50165
-0.279749 0.454164 4.53471
-0.526085 0.44569 4.48683
-0.518661 0.448639 4.51111
-0.404145 0.452326 4.52198
-0.395158 0.452579 4.52228
-0.467798 0.458037 4.5142
-0.469019 0.464898 4.50635
-0.490302 0.480713 4.53819
-0.47744 0.482661 4.53227
-0.282942 0.508028 4.56546
-0.685252 0.497889 4.46527
-0.645786 0.506803 4.5265
-0.657328 0.511709 4.4868
-0.77466 0.513014 4.428
0.108555 -0.10682 4.55736
-0.765541 -0.122206 3.46197
0.107106 -0.0748624 4.48612
0.145857 -0.0687382 4.54245
0.146498 -0.0543632 4.56139
0.142975 -0.042784 4.54192
-0.742662 -0.0352452 4.28157
0.0810186 -0.0271866 4.40506
0.152203 -0.022088 4.50932
0.0644912 -0.0210563 4.39052
-0.0838151 0.00135843 4.40475
0.161754 0.019218 4.56124
0.00328265 0.0112763 4.40623
-0.328346 0.0177821 4.37127
-0.291497 0.018404 4.33257
-0.00629673 0.0189138 4.36898
-0.0196954 0.0292502 4.41492
-0.0804286 0.0308863 4.33789
-0.0579238 0.0448284 4.42257
0.059989 0.0461946 4.42855
-0.727952 0.0417153 4.26985
-0.203067 0.0423872 4.30257
0.0106885 0.0478713 4.35
-0.0190336 0.0532697 4.41974
0.154815 0.0698446 4.52945
-0.112579 0.0655851 4.35139
-0.0992501 0.0656143 4.35258
-0.123384 0.0757233 4.35189
-0.149683 0.0783467 4.36726
-0.0122269 0.0836239 4.37444
-0.735734 0.080816 4.33525
0.143831 0.0958968 4.50634
-0.637781 0.109838 4.53645
0.0938538 0.12453 4.59103
-0.718989 0.134121 4.32882
-0.0645724 0.161225 4.53771
-0.072956 0.170812 4.5458
-0.67661 0.155824 4.3543
-0.0646521 0.183707 4.57018
-0.784696 0.171182 4.27718
-0.707462 0.171171 4.2573
-0.0914497 0.202962 4.52026
-0.270679 0.210009 4.56396
-0.070092 0.209929 4.54341
-0.0632132 0.208939 4.52933
-0.651082 0.205919 4.52366
-0.627271 0.210178 4.57433
0.0970339 0.21409 4.57571
-0.6377 0.212513 4.56518
-0.147324 0.228344 4.56604
-0.787097 0.201407 4.3254
-0.650388 0.222391 4.53366
-0.195522 0.228651 4.53197
-0.0529644 0.230919 4.52953
-0.664139 0.22559 4.5026
-0.616831 0.239093 4.50362
-0.530128 0.243227 4.53135
-0.331474 0.250207 4.53494
-0.0532637 0.252988 4.53684
-0.716105 0.230394 4.33978
-0.264842 0.268627 4.53973
0.0911156 0.27379 4.57912
-0.654125 0.255285 4.47932
-0.641784 0.260352 4.48364
-0.573968 0.261982 4.49365
-0.285644 0.279051 4.57284
-0.570866 0.281629 4.52469
-0.564516 0.284739 4.54946
-0.00757913 0.30466 4.63063
-0.532524 0.295419 4.55134
-0.239127 0.303548 4.52032
-0.707868 0.284326 4.36457
-0.256952 0.313765 4.54495
-0.0137433 0.319559 4.58515
-0.704356 0.28947 4.36672
-0.214332 0.324534 4.51947
-0.0245558 0.338057 4.5964
-0.780886 0.309652 4.3462
-0.124515 0.352427 4.5226
-0.21522 0.3553 4.53185
-0.0371565 0.36921 4.57695
-0.0553939 0.380344 4.60833
-0.704412 0.337131 4.32769
-0.214576 0.382443 4.53671
-0.0926724 0.40023 4.58355
-0.113424 0.405733 4.59896
-0.794515 0.378974 4.36935
-0.627527 0.407496 4.48843
-0.606423 0.422356 4.48902
-0.540393 0.426266 4.52014
-0.50828 0.424872 4.50819
-0.220316 0.441437 4.55796
-0.404815 0.437168 4.53291
-0.639017 0.435951 4.46889
-0.541876 0.445294 4.5158
-0.411163 0.44727 4.50746
-0.302226 0.453204 4.53814
-0.280568 0.4492 4.49584
-0.587824 0.442858 4.46785
-0.39236 0.44952 4.49606
-0.60819 0.449598 4.50274
-0.541138 0.468915 4.51946
-0.49561 0.470011 4.52327
-0.478953 0.483918 4.54653
-0.283537 0.504555 4.52218
-0.651244 0.505177 4.53286
-0.263937 0.522187 4.59532
-0.805013 0.514522 4.44386
-0.832031 -0.127182 3.76281
0.106284 -0.0751748 4.49498
-0.744934 -0.0354605 4.28921
-0.132883 -0.0111565 4.41699
-0.14547 -0.00950119 4.37302
0.00561179 0.0125885 4.42062
-0.00631682 0.0186573 4.38608
-0.321562 0.0263648 4.35126
0.00598889 0.02429 4.40867
-0.02266 0.0294428 4.41005
0.165439 0.0399566 4.54178
-0.739317 0.0433174 4.33912
-0.207326 0.0429597 4.31045
-0.059759 0.047105 4.42119
-0.0312876 0.0478871 4.42886
0.0602735 0.0474884 4.42768
0.0103296 0.047945 4.3416
0.0351152 0.0488524 4.35725
-0.666174 0.050765 4.29752
-0.12098 0.0634064 4.42104
0.153054 0.0710546 4.5229
-0.111694 0.066881 4.40383
-0.098582 0.0656124 4.35261
0.00588115 0.0656704 4.36237
-0.0045758 0.0718282 4.41057
-0.237929 0.0704985 4.30759
-0.125772 0.0756737 4.37708
-0.0772639 0.0768413 4.34294
-0.012926 0.0836282 4.38297
0.145005 0.0963593 4.5213
-0.73339 0.0833044 4.32556
0.0926381 0.121098 4.60048
-0.656643 0.108127 4.26471
-0.685485 0.115042 4.33208
-0.717905 0.133157 4.32369
-0.0756572 0.172898 4.55168
-0.661337 0.152848 4.2633
-0.227957 0.182664 4.52745
-0.783533 0.157389 4.25806
-0.679253 0.15948 4.29226
-0.764254 0.160948 4.25992
-0.228813 0.191557 4.53431
-0.236528 0.200002 4.53709
-0.776995 0.170382 4.2387
-0.707154 0.171171 4.25732
-0.677321 0.205432 4.59528
-0.0920989 0.203748 4.53363
0.0961107 0.211643 4.56872
-0.296797 0.215069 4.56891
-0.283295 0.215954 4.57619
-0.243085 0.21156 4.53043
-0.262586 0.222905 4.52395
-0.14589 0.226223 4.53281
-0.216687 0.231191 4.55845
-0.0495794 0.230105 4.54396
-0.689483 0.231232 4.42932
-0.629231 0.240747 4.51316
-0.602392 0.238998 4.4957
-0.562393 0.238603 4.48886
-0.529697 0.242883 4.52232
-0.714465 0.226315 4.34909
-0.617843 0.244863 4.51385
-0.659082 0.249994 4.45746
-0.598555 0.260871 4.51391
-0.263677 0.26831 4.53132
-0.643571 0.263914 4.50895
-0.569396 0.263223 4.49761
-0.433752 0.265212 4.50553
0.0887964 0.282897 4.57811
-0.0535466 0.283749 4.54699
-0.289216 0.2928 4.56968
-0.249604 0.289357 4.53652
-0.504501 0.293148 4.53982
-0.535687 0.300131 4.56809
-0.26037 0.305609 4.57117
-0.124455 0.301592 4.52356
-0.306412 0.307887 4.5522
-0.706886 0.283608 4.34865
-0.10703 0.335985 4.54436
-0.784849 0.31171 4.35353
-0.144828 0.337584 4.49788
-0.657507 0.313905 4.34945
-0.0502521 0.368736 4.6074
-0.11425 0.364649 4.54917
-0.056323 0.379758 4.5993
-0.110322 0.376014 4.53577
-0.132645 0.391113 4.59578
-0.118113 0.395266 4.59599
-0.110173 0.399876 4.55874
-0.218908 0.398123 4.54065
-0.647697 0.401376 4.51733
-0.625197 0.402892 4.50023
-0.662195 0.397821 4.44997
-0.639891 0.411987 4.54684
-0.428256 0.42012 4.55695
-0.294035 0.420682 4.53037
-0.646985 0.418643 4.51105
-0.415309 0.42907 4.53665
-0.298696 0.431794 4.52676
-0.405585 0.437832 4.54143
-0.407383 0.454165 4.54522
-0.397437 0.448119 4.49098
-0.286491 0.453196 4.49445
-0.270486 0.458929 4.50631
-0.469232 0.456506 4.49419
-0.79133 0.459203 4.41768
-0.537367 0.466004 4.48545
-0.491582 0.467149 4.48968
-0.252133 0.495008 4.53788
-0.285439 0.508737 4.55334
-0.269521 0.505435 4.53067
-0.690136 0.50135 4.44477
-0.659747 0.512549 4.49487
0.130943 -0.0965115 4.54728
0.10909 -0.081328 4.55326
0.149045 -0.0709795 4.54336
-0.219625 0.00913065 4.33926
0.00854135 0.0108134 4.41158
-0.018196 0.0278325 4.41381
0.0117975 0.0232849 4.3925
0.165906 0.0394702 4.53662
-0.0283725 0.0454222 4.42066
-0.68892 0.0452674 4.33852
-0.0862622 0.0486225 4.40192
0.0103837 0.0477751 4.36185
0.0354651 0.0497674 4.41977
-0.243913 0.0533264 4.35754
-0.0587309 0.0592941 4.37942
-0.679938 0.0587815 4.33724
-0.109609 0.0613724 4.33829
-0.0958021 0.0650407 4.3883
-0.213522 0.0658115 4.32939
-0.125554 0.0756334 4.39762
-0.291326 0.106578 4.59999
0.112187 0.102623 4.51232
-0.669451 0.110681 4.35231
-0.673705 0.110461 4.26514
-0.706461 0.134537 4.33283
-0.11462 0.167677 4.53212
-0.0795652 0.172521 4.54546
-0.690231 0.152997 4.28695
-0.665637 0.153295 4.29097
-0.226804 0.180368 4.52916
-0.784552 0.171154 4.27567
-0.654868 0.203283 4.5284
0.0995277 0.211825 4.60638
-0.626672 0.210321 4.57835
-0.265478 0.190862 4.06714
-0.0679191 0.211929 4.54336
-0.181997 0.21451 4.52253
-0.0479629 0.224481 4.52251
-0.65352 0.2329 4.52205
-0.275521 0.239609 4.51856
-0.554116 0.239593 4.53165
-0.690202 0.231817 4.43315
-0.614935 0.243028 4.52569
-0.525523 0.241423 4.49539
-0.412517 0.248234 4.54596
-0.287514 0.252897 4.52668
-0.521769 0.259298 4.5327
0.0927798 0.270072 4.57987
-0.597846 0.260912 4.51429
-0.575333 0.261426 4.5166
-0.441443 0.265061 4.52909
-0.641384 0.263535 4.49901
0.0885115 0.278724 4.56848
-0.282169 0.277293 4.52869
-0.651631 0.275233 4.50391
-0.706192 0.267178 4.41024
-0.570907 0.281716 4.52652
-0.242171 0.283677 4.49612
-0.548247 0.289619 4.53194
-0.199663 0.298126 4.53073
-0.230454 0.305965 4.55771
-0.707279 0.284035 4.35818
-0.234821 0.320092 4.55504
-0.032317 0.324808 4.58292
-0.786155 0.311056 4.37261
-0.144749 0.337911 4.52263
-0.110492 0.365205 4.55885
-0.0558642 0.376719 4.60646
-0.111289 0.374728 4.55842
-0.090569 0.379963 4.54589
-0.0924306 0.402701 4.61911
-0.79926 0.372396 4.36767
-0.628863 0.408442 4.55004
-0.514092 0.412767 4.54031
-0.429904 0.4155 4.54772
-0.511086 0.427704 4.54482
-0.398391 0.428715 4.50272
-0.143453 0.443266 4.5277
-0.396371 0.446009 4.52743
-0.301872 0.449357 4.53609
-0.605148 0.440504 4.47664
-0.593502 0.44435 4.50394
-0.210174 0.455815 4.51752
-0.267668 0.45766 4.52541
-0.470535 0.453898 4.49466
-0.798114 0.462553 4.45114
-0.251736 0.469036 4.50052
-0.612637 0.469281 4.51048
-0.539321 0.466823 4.49528
-0.484894 0.479487 4.54015
-0.288866 0.498529 4.57656
-0.255034 0.504158 4.57859
-0.283698 0.507743 4.57484
-0.650627 0.504168 4.54315
-0.694933 0.504281 4.47594
-0.00298328 -0.0117835 4.37331
-0.00869739 0.0137034 4.4056
-0.0913461 0.0480639 4.41712
-0.243955 0.0530555 4.36322
-0.684309 0.0595847 4.34514
-0.212352 0.0659126 4.30574
-0.129649 0.0766327 4.37262
0.0163907 0.0745672 4.35722
-0.66065 0.118504 4.54368
-0.701681 0.131965 4.25362
-0.0774549 0.169263 4.53723
-0.675258 0.155523 4.35469
-0.798243 0.160129 4.33057
-0.700823 0.157222 4.31541
-0.79235 0.173953 4.32184
-0.713106 0.170382 4.26087
-0.238613 0.201103 4.5209
-0.276662 0.212602 4.5781
-0.186639 0.215333 4.53337
-0.589 0.222259 4.54306
-0.0548076 0.232541 4.58765
-0.606143 0.230612 4.51596
0.0909818 0.279825 4.58327
-0.705401 0.268642 4.40698
-0.514881 0.28642 4.54249
-0.262495 0.29427 4.56895
-0.706341 0.283517 4.34672
-0.651897 0.30376 4.50216
-0.0187304 0.321728 4.58997
-0.79149 0.330064 4.36248
-0.129671 0.391875 4.54214
-0.105191 0.395879 4.55982
-0.0966381 0.403156 4.62904
-0.647039 0.394854 4.50165
-0.625744 0.401913 4.51301
-0.6646 0.395568 4.4356
-0.635175 0.410871 4.49874
-0.218782 0.435905 4.58578
-0.543418 0.42699 4.53051
-0.509156 0.425757 4.51963
-0.28823 0.437518 4.53041
-0.146196 0.442768 4.53152
-0.642107 0.435418 4.46898
-0.397244 0.445905 4.52674
-0.299617 0.446367 4.50942
-0.603745 0.441116 4.47731
-0.518576 0.447409 4.51405
-0.47567 0.455152 4.47815
-0.289809 0.466069 4.53367
-0.617614 0.467795 4.50105
-0.256118 0.508031 4.57924
-0.28483 0.5088 4.55373
-0.224327 0.505687 4.51173
-0.644377 0.506354 4.52202
-0.691661 0.502019 4.45145
-0.766612 0.524806 4.45024
0.0675947 -0.0295959 4.47139
0.0377444 0.0186402 4.36013
-0.222342 0.0232962 4.29848
-0.0809066 0.0310675 4.32359
-0.20293 0.0374603 4.30691
-0.0945387 0.046685 4.34714
-0.0337721 0.0480421 4.41904
0.00932481 0.0487722 4.41337
-0.239538 0.0499398 4.36239
-0.116132 0.0550569 4.39508
-0.0247965 0.0627108 4.42653
-0.00466009 0.0622353 4.37689
-0.129649 0.0766327 4.37262
-0.0249047 0.0745752 4.35311
0.0169726 0.0745612 4.35719
-0.244423 0.124105 4.6057
-0.6592 0.130349 4.38145
-0.236194 0.18183 4.60175
-0.696356 0.155058 4.293
-0.729398 0.176011 4.30458
-0.237801 0.200708 4.50565
-0.598941 0.178453 4.07596
-0.0673485 0.212016 4.53865
-0.631126 0.221916 4.55348
-0.0538471 0.228684 4.54187
-0.303118 0.270149 4.5683
-0.558843 0.265104 4.50425
-0.420865 0.271326 4.51803
-0.0531305 0.283808 4.54831
-0.517741 0.285925 4.55756
-0.259076 0.289457 4.54836
-0.00293922 0.306854 4.62303
-0.235899 0.321142 4.5217
-0.0248303 0.33486 4.61852
-0.149193 0.332832 4.49822
-0.102483 0.342764 4.52658
-0.114859 0.365197 4.53267
-0.134925 0.369469 4.46719
-0.644978 0.396587 4.51489
-0.608036 0.413927 4.5455
-0.531811 0.412986 4.53471
-0.269021 0.481297 5.19105
-0.511347 0.426825 4.53403
-0.438335 0.429214 4.541
-0.323732 0.439958 4.55088
-0.152017 0.44971 4.59602
-0.523693 0.446305 4.5289
-0.401266 0.446228 4.50427
-0.30303 0.454588 4.55492
-0.292248 0.463867 4.5161
-0.256305 0.470529 4.5148
-0.536421 0.465407 4.47908
-0.503552 0.466373 4.48364
-0.284286 0.504883 4.52274
-0.229237 0.503636 4.50661
-0.642851 0.504988 4.50719
-0.804343 0.516476 4.47087
-0.144964 -0.00924159 4.36091
-0.032094 0.00573653 4.48621
-0.00406535 -0.00893745 4.24459
0.0208186 0.0289125 4.32351
-0.195819 0.0377863 4.34875
-0.236659 0.0512525 4.34774
-0.00404192 0.0538991 4.32077
-0.186974 0.061611 4.36243
0.0215178 0.0701465 4.42892
-0.130172 0.0766019 4.39025
-0.0271023 0.0745511 4.37067
0.0556271 0.0785919 4.43213
-0.660977 0.116028 4.57763
-0.668115 0.113555 4.26588
-0.652642 0.145987 4.36416
-0.680155 0.148459 4.34411
-0.230426 0.180289 4.60039
-0.651347 0.198857 4.57219
-0.0640645 0.217002 4.54082
-0.306726 0.248897 4.53018
-0.303118 0.270149 4.5683
-0.545956 0.291432 4.57222
-0.513878 0.285212 4.51738
-0.198421 0.298002 4.51602
-0.268826 0.312879 4.56402
-0.651427 0.308921 4.52237
-0.204851 0.334347 4.50214
-0.671779 0.310274 4.34492
-0.655934 0.32593 4.34422
-0.113668 0.377369 4.60008
-0.785046 0.359099 4.32559
-0.710247 0.36498 4.33218
-0.120728 0.405891 4.55535
-0.532651 0.412986 4.55293
-0.240597 0.423055 4.58168
-0.269567 0.423415 4.51728
-0.552342 0.425659 4.52973
-0.14452 0.442994 4.52729
-0.403581 0.448721 4.49453
-0.205696 0.46372 4.57624
-0.501249 0.47165 4.50735
0.108526 0.0215289 4.44606
-0.652771 0.047821 4.35938
0.121723 0.100319 4.51293
-0.0648222 0.133521 4.56258
-0.659265 0.0948716 4.3629
0.0951691 0.208778 4.56819
0.067956 0.216366 4.56529
-0.655087 0.216743 4.50889
-0.00591803 0.240862 4.5791
-0.228539 0.235997 4.51378
-0.243085 0.302084 4.53393
-0.223234 0.315468 4.52064
-0.139752 0.358082 4.52246
-0.109941 0.388528 4.55311
-0.407947 0.421009 4.51955
-0.658312 0.391244 4.42708
-0.410494 0.443856 4.49929
-0.0105964 0.0790505 4.41905
0.099171 0.20345 4.58653
0.0963809 0.224837 4.57123
-0.143981 0.227153 4.53525
-0.649319 0.302667 4.50241
0.0944937 0.213945 4.56913
0.0946286 0.228632 4.58099
-0.296134 0.236229 4.54583
-0.280815 0.484605 4.52311
0.0878858 -0.0567237 4.50181
0.145241 -0.0346703 4.53904
-0.776933 0.0430466 4.32785
-0.0209872 0.0545158 4.41736
0.0117888 0.064333 4.40358
-0.66472 0.233919 4.44269
-0.12267 0.298903 4.52203
-0.297938 0.433658 4.51873
-0.263749 0.512475 4.52869
0.0141104 -0.00329251 4.43482
-0.113329 0.0590316 4.41011
0.143831 0.0947936 4.5214
-0.712991 0.129097 4.31606
-0.671554 0.280207 4.41783
-0.201597 0.314825 4.52493
-0.145338 0.334689 4.52457
-0.0231787 0.0217051 4.4189
0.105317 0.111917 4.488
0.0605199 0.21687 4.57928
-0.186918 0.218655 4.52912
-0.694031 0.233619 4.43905
0.0870351 0.282997 4.57893
-0.122773 0.296646 4.52484
-0.269595 0.314221 4.55311
-0.215852 0.332823 4.51995
-0.287424 0.503909 4.5254
-0.791951 0.160516 4.33297
-0.704955 0.151781 4.30666
-0.0680215 0.213079 4.52294
-0.0570872 0.286226 4.53024
-0.127888 0.300544 4.52352
-0.125791 0.403585 4.54331
-0.274828 0.114129 4.52304
-0.491724 0.257495 4.50539
-0.703239 0.274138 4.41598
0.103129 -0.0556291 4.50426
0.145318 -0.0388171 4.53156
0.152583 -0.0315773 4.54783
-0.660509 0.0158976 4.54701
-0.0562213 0.0101663 4.42902
-0.0323077 0.0223753 4.42779
-0.67269 0.0265494 4.38422
-0.548163 0.0332046 4.3993
-0.0159421 0.0309395 4.4401
-0.232787 0.0313857 4.3818
-0.122986 0.0494422 4.42353
-0.55724 0.0555072 4.40813
-0.0131118 0.0577344 4.4478
-0.638503 0.0530692 4.37278
-0.63361 0.0725774 4.38223
0.14662 0.0987203 4.52749
-0.656566 0.0880991 4.38031
-0.147838 0.0857102 4.40062
-0.0612534 0.164256 4.53989
-0.12596 0.175585 4.53138
-0.661931 0.200128 4.51894
-0.646692 0.200324 4.52041
-0.671645 0.185908 4.46804
0.0976748 0.213787 4.56838
0.0682142 0.241018 4.73252
-0.653781 0.213017 4.49751
-0.292805 0.227522 4.53871
-0.319261 0.232524 4.52338
-0.305542 0.23286 4.52467
-0.324036 0.246076 4.52717
-0.544547 0.242856 4.4976
-0.412836 0.25041 4.5099
-0.281044 0.250434 4.51155
-0.538286 0.252443 4.49912
0.026793 0.265139 4.54773
-0.314504 0.267505 4.52244
-0.0498983 0.282575 4.52677
-0.527247 0.284489 4.51137
-0.00783486 0.295205 4.54478
-0.213353 0.304962 4.52447
-0.741631 0.264718 4.36997
-0.267772 0.3142 4.53323
-0.664922 0.291099 4.40013
-0.696747 0.309208 4.38594
-0.121034 0.352557 4.51679
-0.129448 0.35972 4.51995
-0.0470396 0.367946 4.54197
-0.107673 0.379395 4.52802
-0.263834 0.404894 4.5672
-0.213699 0.399488 4.51195
-0.537409 0.40615 4.49873
-0.292159 0.420541 4.52414
-0.602036 0.411961 4.50203
-0.461952 0.420208 4.49173
-0.401825 0.422244 4.49698
-0.287628 0.42615 4.5068
-0.421371 0.423284 4.49472
-0.186146 0.432301 4.51955
-0.526553 0.423756 4.4872
-0.613967 0.423994 4.47774
-0.216286 0.438483 4.51628
-0.430387 0.436736 4.48827
-0.760616 0.428849 4.4288
-0.320521 0.446405 4.49682
-0.212978 0.452238 4.50841
-0.532012 0.440871 4.47182
-0.599942 0.441151 4.46103
-0.511405 0.463849 4.47304
-0.651857 0.495374 4.49267
-0.641685 0.496506 4.47412
-0.260537 0.507316 4.51547
-0.239499 0.501471 4.49675
-0.657569 0.504742 4.48709
-0.773201 0.510805 4.42598
-0.76728 0.519036 4.43438
0.105601 -0.062449 4.51265
0.149876 -0.0246793 4.53995
0.160759 0.060881 4.52723
-0.413867 0.0471256 4.39042
-0.0297531 0.0550021 4.44529
-0.0374256 0.0546855 4.42156
-0.746853 0.053375 4.33809
-0.00277528 0.0782002 4.43647
-0.0103063 0.0850945 4.42269
-0.0647942 0.180057 4.53875
0.0955898 0.227628 4.58537
-0.301915 0.228848 4.53047
-0.144286 0.225956 4.53255
-0.559942 0.237845 4.50053
0.0714148 0.289674 4.58643
-0.0589079 0.277876 4.52962
-0.210215 0.332229 4.5076
-0.100444 0.397034 4.55261
-0.645628 0.398296 4.49305
-0.610641 0.402419 4.49037
-0.403163 0.410202 4.50594
-0.629419 0.409429 4.49256
-0.51546 0.416101 4.49577
-0.622479 0.415682 4.47843
-0.390418 0.443577 4.4883
-0.590118 0.440065 4.45999
-0.285418 0.467047 4.49555
-0.220879 0.506187 4.49799
-0.68802 0.503533 4.43367
-0.767976 0.51718 4.41817
0.147531 -0.0689344 4.54777
0.149398 -0.034144 4.5446
0.139274 -0.0312789 4.53597
-0.685487 0.0509436 4.37508
-0.656992 0.0544934 4.38956
-0.122691 0.0594854 4.42146
-0.0399906 0.0570356 4.42247
-0.531017 0.0832779 4.40526
-0.654304 0.0990823 4.37278
-0.0888366 0.170533 4.54112
-0.483966 0.216166 4.52429
-0.22957 0.252102 4.50978
-0.568573 0.280588 4.50725
-0.320879 0.306392 4.54958
-0.669471 0.321067 4.39286
-0.40311 0.411863 4.50586
-0.658697 0.392931 4.43035
-0.637672 0.421066 4.48402
-0.61806 0.421646 4.47954
-0.217173 0.43694 4.52775
-0.212865 0.449386 4.48427
-0.775668 0.511813 4.43951
0.0893088 -0.0525589 4.51765
0.147519 -0.0317031 4.53754
0.00775172 0.00468276 4.43433
0.00357657 0.0264621 4.42514
-0.0447445 0.0465245 4.42182
0.00793954 0.0476381 4.41931
-0.231929 0.0443264 4.35715
-0.00369989 0.0731633 4.43889
0.0136471 0.064632 4.40421
-0.220352 0.0785147 4.41121
0.00997579 0.0840417 4.41999
-0.653914 0.205775 4.52062
-0.620104 0.206277 4.52387
-0.616255 0.219831 4.50198
-0.66266 0.224764 4.47701
-0.71836 0.179349 4.32242
-0.664701 0.232255 4.43824
-0.528572 0.264574 4.50422
0.0890522 0.283034 4.56753
-0.0066096 0.298501 4.54498
-0.121327 0.296952 4.51638
-0.242298 0.310989 4.51644
-0.671476 0.291653 4.40791
-0.107318 0.335841 4.5191
-0.668337 0.298468 4.38644
-0.220797 0.396198 4.51398
-0.645447 0.39497 4.48973
-0.208258 0.44776 4.53462
-0.686531 0.499982 4.42628
-0.78884 0.510231 4.41966
0.0206438 -0.0717233 4.62251
0.137774 -0.0927232 4.55505
-0.661673 0.0134509 4.57983
0.14555 -0.0250572 4.51758
-0.700069 0.0102654 4.38135
-0.114907 0.0612174 4.41303
-0.000615381 0.0680087 4.42944
-0.0146419 0.0841465 4.45172
-0.653163 0.190478 4.51684
-0.309942 0.21849 4.55149
-0.291444 0.245868 4.52613
-0.693704 0.232491 4.4463
-0.498735 0.259249 4.48884
-0.58394 0.286341 4.50905
-0.256993 0.290455 4.52221
-0.124187 0.297747 4.51857
-0.225987 0.31313 4.51565
-0.795666 0.371338 4.36754
-0.399057 0.409474 4.50385
-0.324209 0.412105 4.51048
-0.597468 0.420408 4.47155
-0.793997 0.396015 4.37656
-0.637627 0.430305 4.4723
-0.464353 0.430497 4.46725
-0.208069 0.455093 4.50538
-0.29228 0.488528 4.5141
-0.651298 0.501204 4.4586
-0.0229499 0.0292559 4.436
-0.0634836 0.0649916 4.43787
-0.0208611 0.0631931 4.43572
-0.674168 0.117764 4.35184
-0.504193 0.210203 4.53108
-0.539079 0.287782 4.51051
-0.124112 0.296453 4.52587
-0.702421 0.27507 4.42102
-0.705578 0.278829 4.39121
-0.215507 0.334455 4.52023
-0.663975 0.381598 4.41714
-0.508817 0.409852 4.49963
-0.411961 0.416257 4.50062
-0.229771 0.408169 4.47885
-0.736347 -0.0380329 4.59152
-0.242088 0.0231555 4.40006
-0.0273976 0.0275618 4.43453
-0.267664 0.0356801 4.38317
0.0138144 0.0303655 4.41154
-0.660377 0.0425787 4.38658
-0.0764736 0.146468 4.53012
-0.689034 0.160599 4.36568
-0.292409 0.236968 4.52816
-0.693491 0.232855 4.4368
-0.227974 0.322563 4.50407
-0.050289 0.367636 4.54933
-0.134144 0.368167 4.50585
-0.201836 0.421046 4.49686
-0.268073 0.445046 4.51606
-0.47811 0.458895 4.47725
-0.657403 0.502485 4.44802
-0.64654 0.00514042 4.53616
-0.658672 0.0198252 4.40189
-0.106995 0.0596498 4.40334
-0.148342 0.0784354 4.41317
-0.0737548 0.13939 4.53168
-0.658273 0.175941 4.50833
-0.65887 0.200733 4.50557
-0.595693 0.231194 4.50288
-0.00130038 0.296155 4.55086
-0.127032 0.366265 4.51687
-0.644879 0.393708 4.51446
-0.250242 0.461592 4.51554
-0.00440077 0.0198608 4.39896
-0.694378 0.032021 4.33797
-0.178075 0.0586526 4.35447
-0.649532 0.0750602 4.35244
-0.0753518 0.213266 4.53983
-0.189526 0.214209 4.53067
-0.668676 0.316698 4.35876
-0.763348 0.520112 4.43778
0.0931001 0.280339 4.58885
-0.0594542 0.278952 4.53289
-0.269228 0.0319055 4.36075
0.151114 0.0902329 4.52052
-0.123178 0.0626005 4.40746
-0.68795 0.288107 4.36715
-0.0574962 0.374911 4.54833
-0.661532 0.0840488 4.37115
-0.017585 0.0561684 4.41435
-0.0414581 0.358932 4.55922
-0.6953 0.040297 4.33497
-0.733487 0.0838825 4.32281
-0.15589 0.372707 4.53235
-0.332188 0.227201 5.11435
-0.0210637 0.0617741 4.40524
-0.00732153 0.0650224 4.41373
-0.799486 0.369823 4.36088
-0.66634 0.0324836 4.37935
-0.209279 0.0399787 4.36275
0.0150656 0.0594881 4.40943
-0.439118 0.090028 4.40965
-0.175492 0.0645068 4.36734
-0.0557233 0.0874519 4.41921
-0.314398 0.252851 4.52635
-0.65232 0.258745 4.49033
-0.625241 0.404931 4.5074
-0.296085 0.426033 4.53045
-0.534391 0.424759 4.48459
-0.505264 0.440781 4.47795
-0.608555 0.445557 4.47715
-0.665098 0.0266311 4.37142
-0.656042 0.227816 4.5078
-0.213133 0.324856 4.51542
-0.778232 0.510874 4.44097
-0.718967 -0.0152286 4.63401
-0.654414 0.503586 4.46235
-0.761901 -0.0466842 4.36397
-0.43493 0.0549217 4.37999
-0.202516 0.299176 4.50868
-0.230523 0.409132 4.51031
-0.794242 0.394679 4.35546
-0.652386 0.466895 4.46093
0.094574 -0.0532098 4.5057
0.152327 -0.0196993 4.52771
-0.00403877 0.0178467 4.42506
-0.0599771 0.367966 4.54351
-0.241367 0.408845 4.50949
-0.22198 0.501056 4.50254
-0.795923 0.510548 4.42644
-0.697954 0.0476285 4.35104
-0.101366 0.379394 4.53566
-0.265603 0.424439 4.51606
-0.699176 -0.00624595 4.62181
-0.00629311 0.0664904 4.41703
-0.548733 0.294487 4.52827
-0.295847 0.48786 4.53473
-0.00052103 0.303285 4.54916
-0.139079 0.437653 4.52759
-0.799002 -0.0467078 4.71789
0.0056608 -0.0436624 4.72464
-0.0406726 -0.0300841 4.74955
-0.00439308 -0.0364176 4.70009
-0.729405 0.0254094 4.68867
-0.707664 0.0197264 4.66238
0.110019 -0.0732394 4.52272
0.00124009 -0.0292671 4.57452
-0.181793 0.0120061 4.64185
-0.690263 0.0544682 4.66262
-0.074876 0.00349287 4.58677
0.14103 -0.0294367 4.54176
-0.563609 0.0364747 4.61655
-0.545785 0.0355201 4.61496
-0.471602 0.0307332 4.60536
-0.159429 0.00988092 4.58083
0.0876706 -0.0251559 4.53368
-0.752416 -0.0577929 4.33548
-0.735704 -0.0463548 4.33814
-0.74576 -0.0463693 4.32063
0.0732817 -0.0152279 4.4796
-0.160976 -0.022646 4.4265
-0.149731 -0.0261189 4.38896
-0.0986529 -0.0145279 4.40097
-0.0838394 -0.0156927 4.39832
-0.631815 0.0086548 4.39901
-0.672681 -0.00984944 4.34718
-0.265932 -0.00462554 4.39438
-0.79297 -0.00759951 4.31971
-0.23263 -0.00520575 4.36164
0.00215395 -0.005946 4.38142
-0.0532545 0.019152 4.40414
-0.660676 0.019632 4.34772
-0.550526 0.0247917 4.36051
-0.690215 0.023416 4.31911
-0.00146974 0.0228335 4.37168
-0.363603 0.034239 4.35681
-0.076054 0.0329378 4.37595
-0.0289736 0.043558 4.39823
-0.55318 0.0429811 4.35662
-0.408109 0.0405676 4.35154
-0.223617 0.0270822 4.3342
-0.658517 0.0377188 4.31682
-0.286812 0.0451897 4.36213
-0.0649081 0.0523695 4.39185
-0.244559 0.0494395 4.35999
0.111984 0.0983832 4.48926
-0.739912 0.0499192 4.3049
-0.435291 0.0615587 4.34974
-0.525118 0.0700653 4.35016
-0.225351 0.198044 4.511
-0.643902 0.218079 4.5383
-0.292773 0.23016 4.56198
-0.606982 0.233437 4.53531
-0.303596 0.240991 4.56441
-0.70965 0.125358 4.29573
-0.293208 0.235476 4.54786
-0.217943 0.243643 4.55216
-0.05159 0.240302 4.55842
-0.0530555 0.242325 4.54925
-0.696241 0.139452 4.29128
-0.319898 0.249911 4.53873
-0.688573 0.152439 4.31098
-0.593729 0.249279 4.51807
-0.535517 0.252602 4.515
-0.255872 0.254299 4.52358
-0.773885 0.151517 4.26379
-0.519753 0.270265 4.52038
-0.26517 0.274855 4.53325
0.0757579 0.297767 4.59722
-0.542507 0.303988 4.53794
-0.476784 0.311617 4.55348
-0.206029 0.299545 4.52759
-0.705898 0.268247 4.4268
-0.683224 0.270358 4.43477
-0.668027 0.286942 4.42882
-0.657057 0.36318 4.50267
-0.134695 0.371378 4.53069
-0.27383 0.419544 4.58062
-0.252926 0.410123 4.54839
-0.62776 0.415457 4.52741
-0.665859 0.332254 4.35024
-0.317754 0.432175 4.5488
-0.5159 0.429589 4.54235
-0.533488 0.4296 4.52904
-0.323075 0.438247 4.54546
-0.650105 0.427816 4.50978
-0.546575 0.436853 4.5324
-0.523972 0.430211 4.51277
-0.305316 0.442657 4.54429
-0.518452 0.431499 4.50855
-0.538631 0.432383 4.50438
-0.51611 0.445153 4.50611
-0.52199 0.445474 4.5006
-0.414378 0.454092 4.51481
-0.280881 0.488901 4.52947
-0.476102 0.490207 4.51763
-0.800216 0.521683 4.44246
-0.685398 0.507334 4.43037
-0.80422 -0.0395948 4.7526
-0.0256053 -0.0293559 4.73476
0.132678 -0.096518 4.54959
0.107557 -0.0755273 4.52316
-0.196915 0.0200574 4.65453
-0.173069 0.0202595 4.61496
-0.647105 0.0103625 4.41752
-0.717495 -0.000902533 4.31701
-0.327806 0.00889413 4.37129
-0.00751863 0.0157668 4.40366
-0.129115 0.00702243 4.33188
-0.080573 0.0152191 4.36656
-0.344226 0.0291452 4.34888
-0.045124 0.0399031 4.39653
0.00612835 0.0334393 4.37882
-0.322641 0.0397432 4.35422
-0.533481 0.049568 4.34282
-0.662081 0.0589561 4.30722
-0.682154 0.0648771 4.31497
-0.316638 0.234628 4.5837
-0.613804 0.232764 4.52712
-0.658181 0.234593 4.52184
-0.422294 0.303113 4.5716
-0.55508 0.306576 4.54269
-0.442571 0.310021 4.55341
-0.0131313 0.323349 4.55603
-0.0220965 0.327618 4.5449
-0.709576 0.287169 4.38012
-0.141121 0.362412 4.52509
-0.293637 0.42583 4.56315
-0.543922 0.423018 4.53986
-0.529654 0.430447 4.53665
-0.545871 0.424822 4.51356
-0.46742 0.431823 4.51746
-0.322466 0.43834 4.53285
-0.2892 0.443788 4.54389
-0.315917 0.4381 4.52894
-0.609115 0.44708 4.47606
-0.604259 0.447937 4.47217
-0.696456 0.483164 4.4468
-0.738262 0.516235 4.43781
-0.782838 -0.100832 4.34826
0.101342 -0.0623984 4.53504
-0.0246972 -0.0659515 4.49538
0.0977918 -0.0609532 4.49336
-0.202131 0.0312048 4.65626
-0.61012 0.0370981 4.61915
-0.382691 0.0329461 4.62302
-0.0868246 0.00749833 4.59355
-0.792893 -0.0549564 4.33547
-0.678641 0.0114938 4.48209
-0.152505 -0.0139331 4.3806
-0.248823 0.0154277 4.34112
-0.0595263 0.0367211 4.39628
0.0567548 0.0365506 4.40728
-0.225484 0.022818 4.31957
-0.121727 0.0526284 4.38554
-0.670137 0.0445411 4.32148
-0.442821 0.227461 4.57616
-0.57128 0.225105 4.54942
-0.594661 0.228818 4.53884
-0.655369 0.244137 4.52866
-0.687278 0.139313 4.28738
-0.627422 0.243149 4.50733
-0.294963 0.251486 4.53827
-0.288572 0.263764 4.55174
-0.326326 0.270233 4.53031
-0.28819 0.292434 4.56069
-0.0284059 0.320278 4.5626
-0.132865 0.374105 4.54219
-0.543783 0.42066 4.54158
-0.614391 0.416718 4.5051
-0.256511 0.427244 4.52413
-0.711368 0.364995 4.37245
-0.42647 0.434532 4.51998
-0.289286 0.44234 4.53084
-0.661098 0.406045 4.43472
-0.139905 0.449996 4.5362
-0.742627 0.37844 4.34273
-0.656925 0.516234 4.50637
-0.689 0.514727 4.45038
-0.0568729 -0.0261582 4.68577
-0.79356 -0.0884594 4.4071
-0.754384 -0.0804205 4.3313
-0.306593 0.0307132 4.63876
-0.437109 0.0329111 4.61715
-0.193409 0.0466361 4.67573
-0.754844 -0.0596318 4.33406
-0.187505 0.0239157 4.58972
-0.742928 -0.0550131 4.32715
-0.751444 -0.0415606 4.32942
-0.672152 -0.00348141 4.42642
-0.127739 -0.0231558 4.40184
-0.236048 -0.00231855 4.37989
-0.0355278 0.00427366 4.38321
-0.00595218 0.00912674 4.40509
-0.677452 0.0342928 4.31479
0.00679447 0.0384594 4.37547
-0.0619639 0.0512035 4.38752
-0.336753 0.233587 4.56973
-0.248193 0.215388 4.53581
-0.415676 0.234673 4.54986
-0.0874231 0.225368 4.5478
-0.69821 0.125989 4.29758
-0.291932 0.245098 4.54852
-0.248855 0.227477 4.49631
-0.690168 0.142579 4.28961
-0.32792 0.257058 4.5438
-0.549418 0.294919 4.52915
-0.505193 0.308347 4.56013
-0.555686 0.304354 4.5322
-0.201833 0.303978 4.52506
-0.227453 0.321985 4.52405
-0.0323917 0.334453 4.5439
-0.043859 0.373646 4.55581
-0.113897 0.37422 4.54347
-0.657877 0.306556 4.35793
-0.650543 0.414144 4.54592
-0.41457 0.427323 4.52348
-0.205744 0.4449 4.51971
-0.451929 0.456776 4.51419
-0.212763 0.459726 4.52206
-0.470428 0.461868 4.49483
0.0220099 -0.0673195 4.69411
-0.0390818 -0.0280966 4.74109
-0.709732 0.0193606 4.66827
-0.687406 0.030965 4.67365
-0.711589 0.0245779 4.64272
-0.554825 0.03306 4.61752
-0.741241 -0.0546593 4.33006
-0.660424 0.0157535 4.44518
-0.0336099 0.00457736 4.40403
-0.667275 0.0132079 4.3564
-0.0414717 0.0322523 4.3942
-0.43903 0.036609 4.36167
0.0121829 0.041395 4.39617
0.125042 0.103114 4.53312
-0.215151 0.0503874 4.33681
-0.668141 0.0649297 4.31977
-0.224035 0.0584162 4.33344
-0.339576 0.2294 4.56853
-0.261378 0.242055 4.56445
-0.215247 0.237088 4.54504
-0.783917 0.156322 4.32233
-0.28531 0.297936 4.57732
-0.00396795 0.293478 4.54068
-0.65212 0.31394 4.53066
-0.212039 0.334495 4.53341
-0.0428749 0.353786 4.54902
-0.0616844 0.373449 4.55415
-0.0412669 0.37195 4.55269
-0.543475 0.416882 4.53777
-0.51083 0.425992 4.54816
-0.431527 0.425518 4.54702
-0.265832 0.420087 4.50721
-0.201452 0.444008 4.52656
-0.625811 0.45564 4.50465
-0.290097 0.467815 4.53826
-0.284716 0.514474 4.55473
-0.659078 0.511143 4.48074
-0.800195 0.519493 4.44659
-0.774031 -0.0161257 4.72848
-0.0427961 -0.0295811 4.74251
-0.692976 0.0305128 4.66682
0.100598 -0.061642 4.51678
-0.752815 -0.0735044 4.37884
0.0834681 -0.0426375 4.53
-0.38845 0.0394861 4.615
0.0816331 -0.0340543 4.44387
-0.138919 -0.0093944 4.36237
-0.26125 0.00653913 4.30464
-0.632229 0.218812 4.54121
-0.448041 0.229561 4.57324
-0.328778 0.243005 4.5657
-0.530706 0.310656 4.56434
-0.704711 0.270944 4.42311
-0.23566 0.42256 4.5255
-0.544024 0.433612 4.51424
-0.30566 0.456256 4.5264
-0.503479 0.489476 4.51841
-0.816354 -0.0456363 4.71549
-0.751661 -0.00527631 4.711
-0.729789 0.00796426 4.6866
-0.00394608 -0.0208782 4.66925
-0.0990091 -0.00640263 4.65556
0.0776192 -0.0495128 4.51285
-0.654602 0.0421549 4.58211
-0.386367 0.0499898 4.59144
0.087623 -0.0339206 4.44177
-0.680858 -0.00674083 4.33119
-0.246524 -0.0168691 4.34446
-0.0370487 -0.00960611 4.37999
-0.206231 0.0327875 4.34243
-0.00738174 0.043126 4.36542
-0.219009 0.0495273 4.34554
0.0122119 0.0871362 4.4305
-0.649672 0.238104 4.49801
-0.64103 0.417728 4.50856
-0.510524 0.434427 4.51694
-0.64101 0.515646 4.51508
-0.703055 0.0156952 4.66433
-0.694748 0.0317556 4.66051
-0.0724701 0.00498677 4.66685
-0.667149 0.027163 4.63063
-0.755109 -0.0815575 4.31856
-0.744691 -0.0557906 4.34122
-0.648034 0.0255211 4.34311
-0.684656 0.0402681 4.33478
-0.308437 0.038798 4.35836
-0.279357 0.21587 4.60558
-0.231017 0.313071 4.55419
-0.20581 0.311729 4.53382
-0.679358 0.28611 4.42802
-0.0325654 0.335509 4.53556
-0.0925526 0.395904 4.57588
-0.673038 0.313604 4.37603
-0.647439 0.423336 4.53673
-0.19239 0.444612 4.53846
-0.398765 0.452236 4.51254
-0.482062 0.463826 4.51491
-0.302452 0.500376 4.5694
-0.459159 0.502533 4.55246
