0.0308476 0.0519093 0.115698
0.00305919 0.00527881 0.0114551
0.237406 0.221227 0.496929
0.042205 0.0384895 0.0863877
0.00720446 0.0126915 0.0277434
0.00086998 0.0021102 0.00430551
0.000903223 0.00215571 0.00437564
0.00106431 0.000344739 0.00159567
0.00238572 0.000674088 0.00345626
0.00173726 0.000629799 0.00249796
0.000327836 0.000294599 0.000845619
0.000747724 0.000377116 0.00124954
0.000596534 0.000326648 0.00100377
0.000122566 0.00025998 0.000650977
0.000726118 0.000378473 0.00118528
0.000669696 0.000364615 0.00110039
0.00530103 0.00226158 0.00915314
0.0277285 0.0120914 0.0419603
0.00391368 0.00264672 0.0085669
0.00255573 0.00149661 0.00473656
0.000993891 0.00109565 0.00318695
0.0837383 0.0408163 0.129022
0.0039268 0.00225711 0.00673256
0.0052179 0.00374143 0.0103322
0.326015 0.218935 0.578696
0.00194045 0.00302158 0.00733691
0.00211031 0.00307904 0.00744014
0.010534 0.0105672 0.0263341
0.00234928 0.00356857 0.00858954
0.00612569 0.00741844 0.01804
0.00143104 0.00222243 0.00517738
0.00624134 0.00652449 0.0153692
0.00110552 0.00170606 0.00376907
0.0182181 0.0168707 0.0392809
0.235295 0.208863 0.470742
0.00130451 0.0025708 0.00532611
0.000409696 0.00107185 0.00205502
0.00259059 0.000636741 0.00376072
0.002535 0.000690559 0.00367439
0.0011443 0.00037835 0.00167457
0.000164181 0.000272317 0.000721269
0.000192186 0.00028619 0.000782683
0.000573551 0.000338655 0.00104425
0.000593402 0.000327113 0.0010009
0.000285966 0.000321706 0.000890437
0.000180859 0.000294711 0.000733963
0.00505187 0.00244124 0.00888253
0.00198358 0.0017437 0.0055675
0.00242803 0.00162895 0.00490607
0.00140422 0.00162222 0.00456494
0.00908413 0.00691628 0.0203225
0.000256588 0.000502082 0.0010583
0.0120918 0.0121395 0.0302267
0.000445509 0.000821657 0.00176391
0.00220778 0.00344912 0.00812064
0.00162682 0.00250625 0.00583099
0.0472405 0.0381554 0.0941516
0.105288 0.0869741 0.209092
0.000561932 0.00141885 0.00283175
0.00147875 0.000449655 0.00224322
0.002246 0.00063112 0.00325944
0.000681907 0.000318668 0.0011045
0.000568175 0.000295893 0.000922253
0.00429652 0.00196776 0.00714038
0.000633282 0.000327493 0.00102477
0.00036807 0.000274301 0.000752181
0.000745087 0.000382229 0.00121727
0.000591917 0.000321803 0.000951143
0.000483828 0.000334804 0.000973268
0.000655843 0.000354872 0.00105888
0.00111116 0.00135485 0.00427791
0.00133714 0.00150127 0.00479044
0.000844526 0.00101653 0.00301816
0.000499264 0.000718848 0.00198418
0.000124795 0.000293232 0.000604627
0.000324637 0.000524291 0.00131076
0.00134062 0.00141988 0.0040626
0.0971424 0.0464709 0.147467
0.00652614 0.00360687 0.0106887
0.00530495 0.0032873 0.00961061
0.00502487 0.00360637 0.0102927
0.000270432 0.000503773 0.00111725
0.00607737 0.00392203 0.0108741
0.000253811 0.000484576 0.001044
0.0345379 0.0267324 0.0691706
0.00154043 0.00225568 0.0061572
0.277605 0.224391 0.54819
0.000573657 0.00120965 0.00238946
0.000568453 0.00147699 0.00295217
0.164206 0.0352296 0.263491
0.00112188 0.000319572 0.00164513
0.00100005 0.000828778 0.00391709
0.00163802 0.000502821 0.00237931
0.000159966 0.000257482 0.000730549
0.000538654 0.00032472 0.000972551
0.00365136 0.00159827 0.00598023
0.000811768 0.000415169 0.00133861
0.000934701 0.00112971 0.00359901
0.0131703 0.00848883 0.0290573
0.00183615 0.00132725 0.00397931
0.000328021 0.000556377 0.00141543
0.000971385 0.0010117 0.00280809
0.000997725 0.00122632 0.00333356
0.00609755 0.00427694 0.0126883
0.00622007 0.00384705 0.0112985
0.00541938 0.00382534 0.0109072
0.000194817 0.000548322 0.00109657
0.00983041 0.00981151 0.0244427
0.0175941 0.0158098 0.0396726
0.00130822 0.00196657 0.00451396
0.000182666 0.000534336 0.00103046
0.00226178 0.0035848 0.00834233
0.00851179 0.00975545 0.0232453
0.0965713 0.0793952 0.190691
0.00253808 0.00250695 0.00556857
0.00140738 0.00256959 0.00539286
0.000591088 0.000307781 0.000982747
0.000693327 0.000372452 0.00119373
0.000696327 0.000362823 0.0011546
0.000167755 0.000299987 0.000719398
0.00229354 0.00203509 0.00664256
0.00181445 0.00197807 0.00559133
0.00392251 0.0024601 0.00712763
0.000353052 0.000640066 0.00154832
0.000216381 0.000450175 0.000977423
0.00356746 0.00260544 0.00710071
0.000361615 0.000691371 0.00145544
0.00608774 0.0072514 0.0178529
0.00838347 0.00863001 0.0212308
0.00337756 0.00282207 0.00684248
0.00377221 0.00286861 0.0178652
0.00304507 0.00159107 0.00630173
0.000586124 0.000306684 0.000977195
0.000395265 0.00028812 0.000842046
0.000535253 0.000285458 0.000860569
0.000179519 0.000272075 0.000739844
0.00279923 0.00133418 0.00486882
0.000169802 0.00032457 0.000748397
0.00192318 0.0013643 0.00416708
0.000298073 0.00051867 0.00128982
0.00264823 0.00196764 0.00534179
0.0459968 0.0284085 0.0781276
0.0089051 0.00614664 0.0163346
0.0796821 0.0625664 0.156384
0.0916643 0.0796893 0.193416
0.00351797 0.00434029 0.00985857
0.000975056 0.00184896 0.00379355
0.000827158 0.000684688 0.00315209
0.000204087 0.000281083 0.000836835
0.000534025 0.0003215 0.000957892
0.00053296 0.000338852 0.000994629
0.00282487 0.00132398 0.0049017
0.00168721 0.00185822 0.00662938
0.000767352 0.000980968 0.00300075
0.000731431 0.000878882 0.00250829
0.00676678 0.0037029 0.0110464
0.0155058 0.0104735 0.028241
0.00157047 0.00242813 0.00628654
0.0335435 0.0291448 0.0691899
0.000574347 0.000297778 0.00093846
0.00149509 0.00198248 0.00674948
0.000408268 0.00028762 0.000786241
0.000179921 0.000285105 0.000728025
0.00193121 0.00105917 0.00335624
0.00148849 0.000933529 0.00288363
0.000231905 0.000463791 0.000956595
0.000386325 0.000990533 0.00190102
0.0279116 0.0131835 0.0422125
0.00221943 0.00131369 0.00380179
0.000370756 0.000277925 0.000791885
0.00138179 0.000556249 0.00200271
0.000541539 0.000328622 0.000985724
0.000216326 0.000441081 0.00093571
0.00681391 0.00434487 0.0116474
0.00018984 0.000301093 0.000785418
0.000608431 0.000328566 0.00100562
0.0108674 0.00659078 0.0183195
0.000145916 0.000259805 0.000669018
0.000128169 0.000273301 0.000654418
0.00565373 0.00397622 0.0105752
0.000594916 0.000327804 0.000985952
0.000625508 0.000337153 0.00102492
0.000163078 0.000486099 0.000946012
0.000182766 0.000273829 0.000767263
0.00039353 0.000278589 0.000784204
0.000630845 0.000332441 0.00101438
0.00036223 0.000341431 0.000966715
0.000417908 0.000292194 0.000802134
0.000639947 0.000365164 0.00109424
0.0019647 0.00146644 0.0043671
0.000575219 0.000829111 0.00221947
0.00193391 0.00288913 0.00696083
0.00158748 0.0021083 0.00485479
0.00231623 0.00293778 0.00672352
0.00127086 0.00199915 0.00444801
0.000176127 0.00026608 0.000739511
0.000635278 0.000863679 0.00246675
0.00299384 0.00217636 0.00594273
0.000560331 0.00142193 0.00284263
0.223184 0.163307 0.983701
0.00120928 0.00222687 0.00462816
0.000122537 0.000227118 0.000682241
0.000305098 0.000291692 0.000813057
0.00320242 0.00222069 0.00629663
0.0077434 0.00626885 0.0156598
0.000179266 0.000527958 0.00101233
0.00091253 0.0016415 0.00349319
0.000883302 0.000314111 0.00133631
0.00146376 0.000466311 0.00211864
0.000647261 0.000318103 0.00105861
0.0506017 0.0316416 0.0866899
0.00746805 0.00612316 0.0152822
0.0447 0.0398096 0.0895931
0.000428649 0.00116515 0.00228158
0.00154837 0.00196604 0.00702487
0.0308988 0.0205331 0.0549161
0.0186127 0.0157877 0.0390789
0.00307626 0.00232898 0.0129679
0.000645551 0.000345074 0.00105763
0.00168491 0.00188054 0.005256
0.019576 0.010628 0.0318749
0.0550549 0.0410618 0.101369
0.00507523 0.00383635 0.0281297
0.00696485 0.001594 0.0114272
0.0102613 0.0024516 0.0169183
0.000965957 0.000861804 0.00439099
0.00128908 0.001066 0.00553004
0.000912694 0.000297606 0.00136628
0.0013945 0.000465673 0.00228315
0.00225266 0.000847284 0.00436445
0.00083931 0.000764181 0.00346007
0.00142935 0.000536065 0.00249619
0.00112233 0.00036872 0.00164142
0.000823358 0.000601908 0.00265186
0.000999361 0.000687328 0.00310534
0.00249601 0.00148823 0.00689664
0.00129642 0.000538941 0.00244909
0.000707595 0.000278636 0.00107697
0.000110448 0.000214954 0.000619628
0.000121481 0.000223107 0.000642698
0.000114214 0.000223032 0.000631835
0.00084621 0.000334944 0.00130139
0.00052536 0.000285334 0.000995796
0.000463976 0.000265271 0.000869288
0.000482575 0.000266811 0.000860949
0.000526566 0.000279255 0.00092563
0.000217767 0.000278042 0.000844825
0.00016013 0.000246734 0.000699333
0.00041086 0.000275761 0.000873769
0.000101018 0.000239201 0.00064271
0.000374946 0.000257919 0.000767252
0.000548065 0.000279002 0.000891338
0.000555079 0.000299222 0.000947471
0.000172667 0.000264707 0.000728981
0.000234697 0.000273999 0.000772039
0.000144881 0.000255894 0.000667975
0.000539123 0.000290848 0.000878785
0.000330428 0.000282373 0.000796969
0.000517237 0.000300339 0.000901726
0.000583122 0.00031782 0.000973903
0.000231839 0.000280535 0.000765318
0.000303464 0.000282434 0.000780738
0.000356217 0.000263523 0.000720398
0.00158015 0.00196926 0.00668785
0.000256451 0.000227992 0.000556005
0.00055957 0.000321453 0.000965417
0.000403479 0.000296537 0.000836761
0.00102362 0.000459338 0.00152481
0.000122383 0.000263334 0.000650836
0.000291196 0.000291658 0.000780567
0.000249454 0.00029601 0.000779684
0.00107301 0.000715345 0.00216224
0.000667333 0.000845282 0.00250833
0.00183706 0.00126494 0.00397913
0.000741878 0.000888378 0.00258443
0.00200538 0.00141018 0.00439726
0.000143888 0.000303497 0.000691617
0.00159071 0.00112783 0.00344939
0.00285997 0.00159031 0.00580674
0.00256863 0.00139387 0.00438113
0.00234062 0.00129035 0.00399518
0.000145337 0.000303937 0.000673846
0.00145759 0.0011029 0.00326267
0.00016065 0.000321208 0.000723255
0.00068684 0.000839336 0.00233784
0.000772654 0.000851089 0.00236571
0.00281325 0.00190349 0.00587724
0.000106759 0.000297821 0.000628258
0.000890772 0.000962217 0.00265078
0.00181734 0.00132161 0.00381658
0.0516009 0.0251085 0.0793517
0.00178717 0.00196436 0.00547784
0.00185302 0.00183565 0.00511654
0.00322279 0.00221599 0.00635197
0.000331662 0.000607124 0.00146769
0.000365498 0.000627012 0.00152773
0.000341082 0.000590027 0.00138263
0.00108753 0.00168513 0.0041788
0.00395315 0.00276511 0.00725777
0.015476 0.0223087 0.0553952
0.000253451 0.000509946 0.00103918
0.00304266 0.00275146 0.00678125
0.0216941 0.025626 0.0633925
0.00281557 0.00355123 0.00850642
0.0664766 0.0599997 0.149018
0.00182219 0.00290099 0.00681941
0.0171313 0.0216855 0.0527571
0.0186845 0.0228481 0.0555442
0.0275965 0.0245358 0.060583
0.00250662 0.00313834 0.00739552
0.00256123 0.00332651 0.00781944
0.00948798 0.0117485 0.0278056
0.00924374 0.0116138 0.027389
0.00371574 0.00402994 0.00938622
0.00735044 0.00897839 0.0202696
0.00105547 0.00267105 0.00547087
0.000608077 0.00125932 0.00248053
0.0283182 0.0206853 0.157267
0.00105059 0.000299604 0.00155125
0.000953338 0.000305301 0.0014302
0.00344222 0.00132048 0.00677033
0.00181903 0.00072476 0.00348272
0.000225563 0.000288211 0.000901991
0.000128849 0.000244042 0.000650641
0.000351832 0.000271936 0.000808938
0.00057199 0.000295443 0.000938274
0.000451925 0.000279951 0.000829705
0.000477798 0.000279475 0.000836755
0.000327141 0.000274696 0.000768952
0.000576055 0.000316902 0.000976444
0.000563273 0.000301997 0.000912414
0.000350049 0.000285123 0.000799069
0.000234121 0.000280196 0.00074549
0.000163918 0.000278336 0.000698727
0.000151295 0.000274067 0.000677501
0.00274935 0.00188344 0.00611596
0.000674631 0.000831126 0.0023867
0.00057944 0.000795689 0.00225207
0.00288249 0.00252364 0.00733847
0.00125257 0.00144063 0.00393894
0.00199872 0.00187153 0.00524607
0.0101446 0.00574056 0.016737
0.00832299 0.00482058 0.0138261
0.000276735 0.000555832 0.00124679
0.00817621 0.00560951 0.0151233
0.00338241 0.00425644 0.0103835
0.0404633 0.048884 0.120751
0.00174758 0.00229886 0.00540597
0.00419048 0.00475304 0.011404
0.00693238 0.00638684 0.0155401
1.62228 1.41354 3.49551
0.00271579 0.00255548 0.00596772
0.00167706 0.00259091 0.00582814
0.000935279 0.00148515 0.00323414
0.000634652 0.0012986 0.00265318
0.000579893 0.00134306 0.00264892
9.77171e-05 0.000197307 0.000610186
0.00108979 0.000344213 0.00164323
0.000756519 0.000293624 0.00126467
0.000874247 0.000304997 0.00131966
0.0022773 0.000903906 0.00450391
0.000931748 0.00071884 0.00326149
0.00149957 0.000774624 0.00363524
0.00156372 0.000585273 0.00276028
0.000101919 0.000221981 0.000650398
0.00027609 0.000332167 0.0011682
0.000460863 0.000271345 0.000866197
0.000367325 0.000268672 0.000766047
0.000561938 0.000312896 0.000965024
0.000664711 0.000325327 0.00103284
0.000369584 0.000271159 0.000750819
0.000515698 0.00031688 0.000938769
0.000156799 0.000266407 0.000680867
0.00175481 0.00144316 0.00460593
0.000917706 0.000986904 0.00298039
0.000772693 0.000892789 0.00262685
0.000642996 0.000873408 0.00247452
0.000147078 0.000302179 0.000666687
0.000569393 0.000756188 0.00207888
0.00152193 0.00111817 0.00330781
0.00193126 0.00139643 0.00416315
0.00144504 0.00114135 0.00326057
0.00272966 0.00200519 0.0058771
0.00672083 0.00385085 0.0112249
0.00565227 0.00389402 0.0103585
0.00850321 0.0104874 0.0260498
0.00118472 0.00178643 0.00415905
0.00518903 0.00440768 0.0107886
0.000302409 0.000651656 0.00135447
0.00317091 0.00342122 0.00814418
0.0653094 0.0571449 0.140802
0.000484356 0.000890112 0.00190302
0.000218502 0.000550883 0.00107362
0.00260938 0.00459156 0.00985439
0.00208806 0.00404991 0.00844392
0.00613066 0.00164347 0.0105582
0.000126596 0.000223451 0.000784952
0.000112111 0.000210016 0.000633018
0.00168431 0.000777293 0.00372948
0.00127164 0.000720918 0.00332414
0.00659016 0.00245568 0.0128475
0.000114968 0.000219551 0.000646369
0.00192035 0.000792903 0.00373979
0.000117457 0.000220206 0.000637241
0.000113126 0.000223894 0.000633074
0.000216099 0.000283395 0.000917584
0.000499834 0.000273676 0.000916547
0.000413531 0.000273789 0.000849883
0.000574323 0.000299248 0.000966188
0.000555227 0.000286004 0.000909275
0.00014959 0.000259637 0.000665038
0.000556864 0.000302431 0.000901244
0.000549909 0.000317074 0.000945876
0.00189451 0.00136967 0.00432097
0.00138033 0.000923918 0.00284803
0.00130292 0.00108797 0.00329908
0.00206793 0.00115589 0.00363938
0.000145434 0.000299301 0.000677821
0.00166401 0.00119029 0.00360238
0.0012606 0.000888879 0.00260553
0.000147633 0.000305181 0.000673501
0.00157763 0.00120572 0.00356429
0.00170769 0.00189629 0.00532398
0.00191739 0.00196295 0.00552993
0.00175388 0.00198359 0.00551254
0.00314408 0.00217498 0.0061803
0.00203851 0.00151772 0.00411006
0.00756685 0.00447779 0.0126849
0.0106985 0.0066539 0.0180928
0.00604117 0.00407854 0.0108761
0.00149722 0.00228583 0.00633123
0.202913 0.301158 0.75869
0.00325386 0.0034125 0.00821812
0.893432 0.716477 1.75933
0.00425152 0.00486162 0.0113069
1.06771 0.876538 2.11534
0.00206543 0.00252757 0.00566835
0.0164618 0.00342454 0.0266606
0.0010157 0.000870694 0.00444473
0.00186123 0.00145389 0.0075802
0.000908443 0.000821994 0.00400471
0.000986173 0.000683739 0.00311299
0.00011501 0.000217423 0.000623895
0.000246024 0.000308397 0.00100663
0.00334171 0.00148456 0.00581405
0.000171736 0.000262343 0.000734961
0.000563255 0.000308024 0.0009519
0.000296055 0.000283723 0.000798132
0.00060723 0.000317896 0.000978922
0.00161683 0.000652824 0.00239141
0.00037406 0.000279147 0.000750026
0.000159973 0.000276481 0.000689528
0.000383784 0.000289763 0.000778037
0.00187325 0.00135229 0.00428807
0.00162792 0.00111245 0.00340235
0.00175337 0.00114041 0.003491
0.000115033 0.000307273 0.000677966
0.00449442 0.00322045 0.009637
0.0047178 0.0026107 0.00772669
0.00111845 0.00157581 0.00423439
0.00264975 0.00193497 0.00525473
0.00688924 0.00421761 0.0116427
0.0184884 0.0116062 0.0317413
0.00946735 0.00588288 0.0159747
0.0367251 0.0446326 0.112091
0.00687397 0.0080731 0.0199606
0.00927254 0.00961189 0.0239202
0.0375222 0.0314947 0.0786448
0.00149466 0.00237535 0.00534688
0.00261476 0.00251036 0.00560743
0.0153313 0.0267528 0.0580394
0.00132083 0.003296 0.00682856
0.0125288 0.00300952 0.0214166
0.00115984 0.000971936 0.0048624
0.000832577 0.000289112 0.00125467
0.000132536 0.000223452 0.000726979
0.00094979 0.000330867 0.00145093
0.00122093 0.000667649 0.00298759
0.000733171 0.000297442 0.00111872
0.000430611 0.000261857 0.000797692
0.000356623 0.000267832 0.000755028
0.000702197 0.000863804 0.00257355
0.00163176 0.00136591 0.00431653
0.00202815 0.00147089 0.00458176
0.00189826 0.00202507 0.00569916
0.000365107 0.000659843 0.00160735
0.00529232 0.00436774 0.0107641
0.00190121 0.00250868 0.00585953
0.00808856 0.00747312 0.017778
0.00335569 0.00258892 0.0160864
0.717864 0.535903 3.23217
0.00349346 0.000968751 0.00576771
0.00381041 0.00119204 0.00682024
0.00097588 0.000337373 0.00149793
0.000583243 0.000550297 0.00226798
0.00113604 0.000651629 0.00277189
0.000710182 0.00029051 0.00107825
0.000149876 0.000244137 0.000672253
0.000372895 0.000257709 0.000777195
0.000562534 0.000289352 0.000946026
0.000395515 0.000279878 0.000786359
0.000595161 0.000323518 0.000975585
0.00040936 0.000295811 0.000824702
0.000626044 0.000340635 0.00100651
0.000496699 0.000700713 0.00190635
0.00907622 0.0136935 0.0334485
0.00225633 0.00279821 0.00657684
0.00807233 0.0133938 0.0293139
0.00133465 0.0010757 0.00566316
0.00137991 0.00113875 0.00573617
0.00435568 0.0013455 0.00759731
0.000649952 0.000570943 0.0025806
0.000105971 0.000206387 0.000607022
0.000116148 0.000217328 0.000632037
0.000175998 0.0002656 0.000720445
0.000155751 0.000267777 0.000699839
0.000362124 0.000286892 0.000811516
0.00366198 0.00226639 0.00779854
0.00276615 0.00194194 0.00565629
0.00288022 0.00201665 0.00567681
0.000328569 0.000584488 0.00136766
0.0038286 0.00232503 0.00641276
0.000314602 0.000592407 0.00129662
0.00206263 0.00318874 0.00767019
0.0639834 0.0499879 0.123882
0.00290146 0.00289221 0.00708699
0.00352601 0.00427678 0.00982308
0.000369249 0.000282494 0.000771151
0.00202877 0.00112624 0.00355113
0.0032977 0.00210883 0.00586104
0.000314172 0.000548989 0.00128058
0.00875154 0.00715699 0.0174395
0.0045754 0.00412267 0.00966364
0.000126712 0.000240362 0.000653685
0.000163256 0.000293466 0.000699043
0.000453335 0.000313831 0.000838176
0.00012684 0.000256349 0.000658943
0.000403088 0.000297791 0.000798595
0.000702915 0.000918993 0.00269063
0.0190607 0.0139668 0.0412131
0.00437652 0.00252939 0.00748881
0.00584836 0.00391795 0.0104908
0.00255077 0.00323226 0.00751555
0.0400178 0.0320423 0.0779902
0.000582754 0.000304465 0.000934688
0.000227803 0.000214527 0.000496253
0.00234736 0.00185781 0.0107027
0.000130395 0.000262051 0.000678699
0.00747455 0.00611097 0.0152507
0.000148216 0.000260774 0.000664765
0.000388663 0.000276813 0.000766792
0.000392746 0.000287589 0.000856351
0.000177534 0.000266559 0.00072392
0.0255535 0.00617803 0.0435566
0.00149223 0.000369739 0.00223792
0.0033553 0.000928743 0.00564398
0.00644847 0.00190969 0.0112889
0.00421412 0.00136648 0.00752289
0.00100511 0.000329999 0.00155021
0.0013528 0.000452852 0.00221266
0.000480302 0.000272951 0.000892429
0.000538375 0.000263419 0.000872279
0.000388071 0.000258831 0.000793246
0.000414482 0.000291313 0.00091413
0.000550755 0.000286598 0.000893662
0.000589487 0.000327347 0.000959583
0.000625787 0.000362209 0.00107218
0.00119574 0.000597409 0.00182775
0.00182516 0.00130036 0.00397842
0.0142815 0.00681866 0.0218499
0.00230157 0.002598 0.00842851
0.00912987 0.00666692 0.0194881
0.00416697 0.00242563 0.00694862
0.0437899 0.0273272 0.0748057
0.000260627 0.00050876 0.00107007
0.00478873 0.0070766 0.0170847
0.523803 0.112339 0.877825
0.000115122 0.000218384 0.000624383
0.000543273 0.000275199 0.000910463
0.000324585 0.000273305 0.000849833
0.000439256 0.000259815 0.000816408
0.000404485 0.000279923 0.000821548
0.00088363 0.000297376 0.00133738
0.000110906 0.000220075 0.000616416
0.000389907 0.000260758 0.000778569
0.000587837 0.000308857 0.00094359
0.00058748 0.000322549 0.000973527
0.0035251 0.00197298 0.00579461
0.00727495 0.00413421 0.012019
0.00104577 0.000358716 0.00152118
0.000502811 0.000310454 0.000894061
0.00058649 0.000809664 0.00227876
0.00287279 0.00351882 0.00836385
0.000718955 0.00177754 0.00358403
0.00119447 0.000993273 0.00493842
0.000992589 0.0003137 0.00149604
0.000380732 0.000271749 0.00075188
0.00688421 0.00407026 0.0115051
0.0012022 0.000325339 0.00179196
0.00117101 0.000450204 0.00172655
0.000538012 0.000268074 0.000881159
0.000670086 0.000857585 0.0023765
0.00298601 0.00191275 0.00544581
0.00754956 0.00432284 0.0124981
0.00138645 0.000416742 0.00218495
0.000372864 0.000280363 0.000804508
0.000545123 0.00028799 0.000873844
0.000139693 0.000272465 0.000618689
0.0311185 0.0191028 0.0527671
0.000288176 0.00053386 0.00119909
0.000378929 0.000271384 0.000766433
0.000180117 0.00033569 0.000787179
0.0272194 0.0338906 0.0839794
0.00363346 0.00289279 0.0194278
0.00969034 0.00199372 0.0158348
0.0105645 0.00231302 0.0174948
0.0104504 0.00233509 0.0172763
0.00419464 0.00106081 0.00713022
0.00372268 0.000957628 0.00637255
0.00139222 0.000345936 0.00208861
0.00107171 0.000288463 0.00160185
0.00300056 0.000814285 0.00506164
0.00104814 0.000287776 0.00155464
0.00175689 0.000535425 0.00294895
0.00104712 0.000903451 0.00454913
0.00336824 0.0010323 0.00591659
0.00088318 0.000270204 0.00130028
0.00159214 0.00181859 0.0101317
0.00453605 0.00140604 0.00797703
0.00198641 0.00076768 0.00385518
0.00174224 0.000605413 0.0030355
0.000129994 0.000221019 0.000748709
0.00170204 0.000667364 0.00326858
0.00158865 0.000584996 0.0028118
0.00114565 0.000648197 0.00294286
0.00110627 0.000522042 0.00235416
0.000723293 0.000563358 0.00240836
0.000994043 0.00060992 0.00268885
0.000759327 0.000512697 0.00217672
0.00116278 0.000578347 0.0025883
0.00119477 0.000470465 0.00210639
0.000969058 0.000355361 0.00152153
0.00105394 0.000353373 0.00153304
0.000463622 0.000477811 0.00186729
0.000104328 0.000201218 0.000593108
0.000180556 0.000258432 0.000854287
0.000599837 0.000488086 0.00191582
0.000573673 0.000458834 0.00177998
0.000637963 0.000514567 0.00200651
0.000763388 0.000363038 0.0014145
0.000678454 0.000311301 0.00116627
0.00390927 0.00143993 0.00660146
0.000128058 0.000215854 0.000617699
5.02694e-05 0.00015665 0.000364615
0.000183268 0.00026781 0.000828059
0.000639513 0.000287326 0.00102314
0.000656912 0.000276483 0.000988547
0.000535531 0.000259584 0.000886462
0.000545533 0.000267048 0.000906455
0.000494369 0.00027275 0.000907357
0.000494514 0.000252573 0.000829183
0.00046366 0.00026968 0.000886545
0.000503171 0.000265808 0.000863474
0.00046117 0.000272802 0.00087393
0.000376869 0.000259162 0.000798519
0.000499749 0.000269882 0.000867513
0.000373144 0.000264301 0.000805524
0.000383149 0.000255851 0.000782293
0.000387361 0.000282986 0.000857993
0.000337502 0.000279462 0.000829441
0.000294104 0.000270307 0.000781619
0.000521683 0.000272211 0.000845297
0.000224129 0.000265234 0.000743425
0.000425067 0.000269431 0.000786736
0.000425638 0.000267356 0.000779049
0.000367146 0.000272127 0.000773818
0.000384401 0.000272852 0.000782526
0.000572423 0.000306095 0.000923087
0.000562837 0.000317648 0.00094956
0.000141981 0.000257467 0.00065315
0.00252643 0.00130678 0.00432091
0.000748797 0.000951703 0.0028316
0.00209727 0.00149848 0.00466481
0.000679017 0.000919701 0.00262829
0.0371334 0.0176097 0.0569189
0.0413573 0.0197752 0.0628967
0.0113483 0.00575566 0.0177875
0.00156088 0.00177236 0.00489544
0.00227201 0.00246253 0.00690294
0.00507537 0.00273789 0.00819448
0.00104308 0.00147922 0.003978
0.000140346 0.000321724 0.000706857
0.000447786 0.000726836 0.00184286
0.0123035 0.00879538 0.0254322
0.0105087 0.00600708 0.0175328
0.0141154 0.00830199 0.0237045
0.0186197 0.0113785 0.0314565
0.0177579 0.0110067 0.0301891
0.494511 0.308042 0.844586
0.00028839 0.000584953 0.00130691
0.0638139 0.041933 0.111482
0.128897 0.156778 0.392324
0.04018 0.0513444 0.12736
0.00293205 0.00266479 0.00653036
0.0198062 0.0203091 0.0507097
0.165158 0.139546 0.353188
0.00864684 0.010441 0.0256069
0.00303276 0.00445929 0.0106921
0.0123106 0.00980211 0.0246796
0.00431093 0.00657356 0.0156962
0.025997 0.0238533 0.0588172
0.00554079 0.00829924 0.0197414
0.00631676 0.00801744 0.0191746
0.00318627 0.0049136 0.011567
0.000274634 0.000590598 0.00123228
0.0142675 0.0153674 0.0365864
0.0243979 0.0198756 0.0481925
0.0346575 0.0320778 0.0768237
0.0322123 0.0292911 0.0700389
0.0042157 0.00628833 0.0144178
0.00506787 0.00943134 0.0201033
0.00658501 0.00489152 0.0372833
0.0428306 0.0345658 0.260183
0.00345753 0.00271162 0.018005
0.0155581 0.0033943 0.0257729
0.00397586 0.00101907 0.00683185
0.00436905 0.00123208 0.00758971
0.00089051 0.000263201 0.00132048
0.00103355 0.000887501 0.00448657
0.0015992 0.000677949 0.00339137
0.0026419 0.000870165 0.00464134
0.000977566 0.000321265 0.00142929
0.000674458 0.000519303 0.00216556
0.00119737 0.000599473 0.00265225
0.000946016 0.000324804 0.00138763
0.00153109 0.00163496 0.00672125
0.00068459 0.000497383 0.00197035
0.000727283 0.000520334 0.00206379
0.000697558 0.000281256 0.00105355
0.000676277 0.000276686 0.00102475
0.000526352 0.000250357 0.000864622
0.000112718 0.000216074 0.000614961
0.000598526 0.00029096 0.00102681
0.000528112 0.000260413 0.00085574
0.000440343 0.000305687 0.000972457
0.000377577 0.000255227 0.000752367
0.000568789 0.000305788 0.000917155
0.000929201 0.000426617 0.00138681
0.000125988 0.000269286 0.000646843
0.0015712 0.00104071 0.00322599
0.00157887 0.00106366 0.00325173
0.00273038 0.00148492 0.00470687
0.0107051 0.00740791 0.0233701
0.044563 0.0211591 0.0679737
0.00193188 0.00169749 0.00494107
0.000149551 0.000304643 0.000691238
0.00196996 0.00225499 0.00640221
0.000115725 0.000316678 0.000700403
0.000372731 0.000626906 0.00148409
0.0167609 0.0105627 0.028699
0.0106535 0.00723443 0.0191818
0.0559738 0.0367854 0.0980414
0.0149676 0.0116506 0.0298019
0.0143472 0.0169437 0.0419536
0.0275687 0.0273372 0.0684864
0.0256281 0.0392807 0.096243
0.00869938 0.0107806 0.0264466
0.0472762 0.0577051 0.141455
0.119474 0.120948 0.29993
0.00653427 0.00761751 0.0183445
0.452447 0.393076 0.972041
0.0165444 0.0259588 0.0612636
0.00745029 0.0113403 0.0264095
0.0587436 0.0968357 0.214687
0.00717543 0.00598456 0.0410076
0.00989953 0.00188165 0.0159257
0.011707 0.00273531 0.0200171
0.00115769 0.0015466 0.00703489
0.0105958 0.00253167 0.0179118
0.0041701 0.00118157 0.00725921
0.000979647 0.000835165 0.0042246
0.00466464 0.00135646 0.00813223
0.000900631 0.000270338 0.001325
0.00241424 0.000799104 0.00421286
0.000789562 0.000590896 0.00255191
0.00122323 0.000534253 0.00235957
0.000167179 0.000250843 0.000831428
0.000984087 0.00044142 0.0018564
0.0015633 0.000525447 0.00224934
0.00391723 0.00144609 0.00660289
0.000110175 0.000213665 0.000605644
0.000556016 0.00026493 0.000922366
0.000673305 0.000288585 0.00104262
0.00010898 0.000218039 0.00060831
0.000547872 0.000268336 0.000912631
0.000520407 0.000251032 0.000838875
0.000509417 0.000278402 0.000879467
0.000376478 0.000259124 0.000773658
0.000552391 0.000294182 0.000899523
0.000354802 0.000272985 0.000773879
0.00057346 0.000313636 0.000959064
0.000585243 0.000321631 0.000969596
0.000144165 0.000253936 0.000642231
0.000779673 0.000953672 0.00270227
0.00142001 0.00136677 0.00393482
0.000192369 0.000218616 0.000429267
0.0144283 0.0103416 0.0310762
0.010232 0.00543085 0.0165379
0.00393017 0.00227749 0.00672343
0.00807461 0.00571755 0.0166246
0.00773958 0.00439975 0.0128047
0.000341918 0.000624348 0.00150853
0.00785708 0.00542036 0.0145742
0.0519745 0.0345218 0.0920694
0.00874023 0.0131022 0.0326973
0.0094808 0.00728723 0.0187759
0.00668465 0.0103828 0.0249578
0.0190281 0.019918 0.0486139
0.00595127 0.010899 0.0231683
0.0132635 0.00313491 0.0226761
0.00191701 0.00150456 0.00865956
0.00780314 0.00203778 0.0135026
0.00355839 0.000907083 0.00587174
0.00429918 0.00121202 0.00748935
0.00106273 0.000296979 0.00158417
0.000135271 0.000224044 0.000827913
0.0036524 0.00105092 0.00607286
0.00165121 0.000681068 0.00343347
0.00333764 0.00132875 0.00685144
0.00078835 0.000546917 0.00233441
9.97296e-05 0.000203512 0.000620544
0.000972565 0.000336098 0.00141544
0.000785994 0.000297963 0.00120088
0.000896584 0.000426367 0.0017397
0.000629709 0.00047531 0.00184787
0.00114359 0.00223826 0.00716423
0.000449063 0.000263407 0.000853425
0.000534153 0.000272285 0.000868269
0.000500841 0.000268988 0.000842708
0.000384275 0.000269639 0.000777564
0.000556513 0.000296193 0.000879148
0.000569947 0.000314598 0.000932222
0.00173621 0.00117832 0.00365927
0.000708822 0.000819507 0.00228906
0.0351232 0.0171427 0.0543547
0.00549223 0.00288377 0.00871218
0.00912178 0.00523501 0.0151048
0.000360022 0.000614636 0.00143056
0.0593027 0.0459902 0.118542
0.000239634 0.000652941 0.00132271
0.00343584 0.00608726 0.0129659
0.00111525 0.00261784 0.0053252
0.00284721 0.00221129 0.0144735
0.00133407 0.00112698 0.00648621
0.000168891 0.000247898 0.00106245
0.00162618 0.00174809 0.00993911
0.00149163 0.00121165 0.00682458
0.00236725 0.000657368 0.00394286
0.000868107 0.00028359 0.00131069
0.000821515 0.000591099 0.0026217
0.00110774 0.000673957 0.00291229
0.000693437 0.00054214 0.00217618
0.000129011 0.000217961 0.000637099
0.000128259 0.000220905 0.000632951
0.000504927 0.000245444 0.000821738
0.00051779 0.000258519 0.00084126
0.00160141 0.00230356 0.00714893
0.000158929 0.000269754 0.000702993
0.00104554 0.001139 0.00316402
0.00182289 0.00198023 0.00555543
0.00473674 0.00262897 0.00778227
0.0109318 0.0064374 0.0182971
0.0185205 0.0125383 0.0338754
0.0168226 0.0111511 0.0297558
0.0180686 0.0118746 0.03152
0.00840237 0.0128711 0.0315921
0.00602705 0.00929159 0.02234
0.0118037 0.0150881 0.0366979
0.0290391 0.0425752 0.102252
0.0138703 0.0110638 0.0272696
0.00728293 0.00563721 0.0430636
0.00513413 0.00128128 0.00876606
0.00214397 0.000683385 0.00374032
0.00387516 0.0012339 0.00694249
0.000896858 0.000285918 0.00134681
0.00157281 0.000658793 0.00329792
0.00393775 0.00146162 0.00657802
0.00050316 0.000244843 0.000802847
0.00049051 0.000251852 0.000801366
0.000144094 0.000237496 0.000647798
0.000386922 0.000258357 0.000785393
0.000520795 0.000261892 0.000836867
0.00017985 0.000273367 0.000752177
0.000536571 0.00027532 0.000844658
0.00106919 0.000463931 0.00158527
0.000463636 0.0002834 0.000820068
0.000590874 0.000323684 0.000981733
0.000147569 0.000262186 0.000655878
0.000186734 0.000334707 0.000811781
0.00119094 0.00168627 0.00454087
0.000331071 0.000590521 0.00134357
0.0151242 0.0188424 0.0464868
0.032726 0.0338308 0.0844753
0.00292559 0.00267608 0.00665058
0.00111009 0.000937214 0.00464102
0.00367472 0.00112732 0.00643583
0.00127378 0.000388588 0.00201153
0.000102986 0.000203375 0.000683816
0.00318205 0.00109372 0.00578657
0.00234258 0.000934093 0.00469576
0.000664624 0.000508353 0.00208315
0.000589169 0.000316088 0.00114946
0.00013838 0.000233032 0.000657393
0.000373133 0.000247288 0.000742138
0.000589413 0.000291749 0.000928765
0.000354141 0.000268042 0.00077788
0.000165077 0.000256219 0.000682546
0.000361381 0.000272849 0.000775474
0.000852769 0.000401248 0.0013217
0.00238095 0.00128682 0.00411904
0.000173812 0.00032193 0.000767132
0.000174252 0.000330803 0.000767236
0.0172596 0.00869236 0.0270583
0.00724327 0.00414756 0.0120009
0.000351128 0.000609427 0.00143651
0.000364421 0.000647133 0.00149569
0.0204201 0.0159781 0.0411407
0.007786 0.0117486 0.0287099
0.0320185 0.0260702 0.0654776
0.161875 0.264244 0.585037
0.00590851 0.0114921 0.0241358
0.00772974 0.00167298 0.0124796
0.0040821 0.00136193 0.007448
0.000874959 0.000640454 0.00281986
0.00195258 0.000719217 0.00349806
9.82192e-05 0.000197243 0.0006013
0.00106256 0.000633764 0.00268352
0.000706047 0.000350298 0.00134433
0.000215419 0.000280516 0.000892091
0.000480399 0.00026705 0.000896398
0.000517876 0.00028107 0.000943802
0.000153428 0.000239646 0.000680014
0.000372878 0.000255678 0.000748263
0.000556091 0.000292257 0.000886614
0.0142005 0.0102383 0.0304206
0.00205028 0.00280888 0.00767544
0.00167461 0.00245623 0.00640709
0.020752 0.027885 0.0636055
0.0282838 0.0476789 0.10693
0.00132004 0.000529435 0.00194855
0.000574728 0.00032677 0.000989412
0.000928782 0.000610077 0.00250004
0.00609148 0.00333629 0.00995776
0.000525468 0.000320478 0.000916617
0.00018557 0.000277237 0.000779164
0.000224631 0.000277177 0.000739924
0.000176131 0.000201306 0.000376737
0.000312213 0.000270439 0.000680129
0.0406226 0.0236519 0.0679056
0.165291 0.103248 0.280653
0.000365144 0.00027922 0.000762347
0.00037154 0.00028459 0.000776948
0.000626509 0.000308111 0.00105057
0.000182323 0.000280168 0.000752185
0.000594701 0.000334883 0.00102277
0.000173044 0.000199766 0.000377003
0.00291443 0.0020501 0.00589176
0.00085269 0.000370848 0.00148066
0.000392467 0.000281979 0.000865562
0.000389639 0.000256326 0.000750397
0.00027019 0.00023567 0.000563394
0.00103073 0.000408257 0.00151756
0.000561334 0.000302031 0.000912572
0.00585253 0.00312789 0.00943993
0.000539356 0.000272337 0.000928194
0.000375625 0.000263253 0.000769831
0.00037442 0.000266482 0.000756227
0.00178338 0.00199337 0.00568515
0.0889088 0.0580351 0.155433
0.00054221 0.000279127 0.000938971
0.00026577 0.000236821 0.000566095
0.00746559 0.00428905 0.0124037
0.000275578 0.000295176 0.000617374
0.000100931 0.00020327 0.000622335
0.00570785 0.00973088 0.0218184
0.00103982 0.00087257 0.00435548
0.00194275 0.000678871 0.00343201
0.000546534 0.000526237 0.00220383
0.000930741 0.000312558 0.00135803
0.00117733 0.00053023 0.00224219
0.000803268 0.000352253 0.00139628
0.000722962 0.000317781 0.00122504
0.000204967 0.000275497 0.000881558
0.00010892 0.000215215 0.000620748
0.000424573 0.000290366 0.000927914
0.000521897 0.000258775 0.000839611
0.000612641 0.000281773 0.000939668
0.000423148 0.000257505 0.000801858
0.000121742 0.000236514 0.000643046
0.000368721 0.000276044 0.000824553
0.000185226 0.000282744 0.000761537
0.000359248 0.000281396 0.000799234
0.000391391 0.000268523 0.000758264
0.000563121 0.000320953 0.000926325
0.00247825 0.00179186 0.00558094
0.0165107 0.00940615 0.0272522
0.0158448 0.00910218 0.0262549
0.0588475 0.0392455 0.104564
0.109802 0.110758 0.272716
0.000647002 0.000641452 0.00376769
0.00419602 0.000901903 0.0067905
0.000438713 0.000227564 0.000759194
0.000520694 0.00026826 0.000895503
0.000446932 0.000264572 0.000824228
0.000525817 0.000269633 0.000853379
0.000386056 0.000261826 0.000779802
0.000204057 0.000281148 0.000755315
0.00141968 0.00120366 0.00692086
0.00209681 0.00057629 0.00340924
0.000977673 0.000294515 0.00146532
0.000874289 0.000275022 0.00130965
0.000491543 0.000269167 0.000850212
0.00037381 0.000283134 0.000853247
0.000513771 0.00028119 0.000879156
0.000726277 0.000352056 0.00112919
0.000361332 0.000258642 0.000729354
0.0247928 0.0121354 0.0382447
0.0222358 0.0146491 0.0404004
0.069145 0.0453189 0.121109
0.0018421 0.00317753 0.00920004
0.00331144 0.00272549 0.0171187
0.000525745 0.000260871 0.000861047
0.000376878 0.000262685 0.000764018
0.00196185 0.0022837 0.00637352
0.000342215 0.000637974 0.00139776
0.00203749 0.000560719 0.00338034
0.000477754 0.000277671 0.000915848
0.000577586 0.000313585 0.000971288
0.0911688 0.0596023 0.159885
0.120764 0.120869 0.297046
0.116617 0.189331 0.420649
0.000734197 0.000513654 0.00204526
0.00117055 0.000526786 0.00220851
0.0007287 0.000321299 0.0012392
0.000581533 0.000261476 0.00096233
0.0038916 0.00143933 0.00651508
0.000423975 0.00028637 0.000939956
0.000397657 0.0002863 0.000772843
0.0148211 0.00847099 0.024622
0.0587367 0.0388052 0.104129
0.000672746 0.000602947 0.00271793
0.000549871 0.00054157 0.00221427
0.000124047 0.000220152 0.000627986
0.00260471 0.00246851 0.00662162
0.00784632 0.00468211 0.0131854
0.00255042 0.00241773 0.00546815
0.000389589 0.000258422 0.000784538
0.0693117 0.0978422 0.248704
0.0768929 0.062933 0.15629
0.00103627 0.00123497 0.00657502
0.00596961 0.00459321 0.034446
0.00128437 0.00109251 0.00749494
0.00230421 0.0018258 0.01192
0.0276119 0.00545926 0.0457462
0.00644101 0.00130812 0.0105435
0.000539615 0.000547665 0.00316605
0.00314756 0.000651884 0.00502286
0.00536887 0.00124985 0.00914659
0.00202132 0.000466467 0.00326254
0.00111548 0.000976737 0.00551413
0.00121865 0.000996298 0.00558663
0.00317267 0.000832574 0.0053298
0.000721369 0.000656257 0.00332927
0.0011521 0.000310166 0.00175239
0.000944808 0.000801878 0.00398265
0.00120471 0.000362403 0.00193619
0.00131771 0.000417787 0.00222673
0.00214719 0.000683028 0.00359448
0.00061375 0.000564563 0.00249745
0.00220979 0.000869529 0.00436895
0.000298312 0.000344161 0.00138999
0.00065429 0.000617216 0.00267831
0.00159715 0.000632369 0.00306901
0.00147392 0.000596966 0.00285906
0.00126757 0.000505893 0.00239717
0.00142212 0.000572662 0.00271758
0.000764953 0.000258729 0.0011488
0.00130986 0.000550178 0.00253486
0.00140729 0.000683897 0.00308936
0.00114008 0.000523967 0.00233199
0.000792487 0.000270127 0.00118444
0.000739828 0.000311996 0.00128998
0.00102754 0.000524242 0.00227424
0.000943739 0.00046175 0.00199196
0.00116586 0.000461189 0.00206308
0.000639023 0.000513696 0.00209
0.00113077 0.000489975 0.00214885
0.000684131 0.000275545 0.00114193
0.00084734 0.000541911 0.00224717
0.000668022 0.000525365 0.00211391
0.000181263 0.000272892 0.000948165
0.000781632 0.000551222 0.00221419
0.000795211 0.000373139 0.0015155
0.000179943 0.000265921 0.000897908
0.000900682 0.000585839 0.00232343
0.000800451 0.000393527 0.00155766
0.00072033 0.000348531 0.00136212
0.000860345 0.000625909 0.00242741
0.000729457 0.000324983 0.00126196
0.000570184 0.000254361 0.000948956
0.000670676 0.000334892 0.00127238
0.000668437 0.00029808 0.00113497
0.00055525 0.000253539 0.000922197
0.000569485 0.000325133 0.00118232
0.000702119 0.000304709 0.00114811
0.000581601 0.000304569 0.00110716
0.000578518 0.000303061 0.00109589
0.000570239 0.000246292 0.000877731
0.000683248 0.000292585 0.00106995
0.000228112 0.000306089 0.000975497
0.000515508 0.000281637 0.000974442
0.000668915 0.000292219 0.00105501
0.000555749 0.000276353 0.000958216
0.000580609 0.000261824 0.000911122
0.000579205 0.000269046 0.000933966
0.000604211 0.000269436 0.00094003
0.000451546 0.000267752 0.000881736
0.000502599 0.000284506 0.000958484
0.00052214 0.00026382 0.000885666
0.000540924 0.000256149 0.000857629
0.000531695 0.000280444 0.000928657
0.000497916 0.000279634 0.000912621
0.0006272 0.000302071 0.00100998
0.000404118 0.000268091 0.000834293
0.00048351 0.000271721 0.00086774
0.000441278 0.000266827 0.000833093
0.000411402 0.000251543 0.000772771
0.000500102 0.000276872 0.000874519
0.000541342 0.000290955 0.00093069
0.000410246 0.000253389 0.000772037
0.000527215 0.000268096 0.000850207
0.000392668 0.000263165 0.000795224
0.000545821 0.00027826 0.000886168
0.00041029 0.000255277 0.000771766
0.000384263 0.00026268 0.000777389
0.000510529 0.000295376 0.000902082
0.000271059 0.00031504 0.000887664
0.000603375 0.000329679 0.00102157
0.000664593 0.000345894 0.00107377
0.000331418 0.000267821 0.000750837
0.000336399 0.000268557 0.000747594
0.000532941 0.000324805 0.000968859
0.000487949 0.000295701 0.000859078
0.00040432 0.000285256 0.000803684
0.00265305 0.00193315 0.00590749
0.00256375 0.001913 0.00576772
0.00271745 0.00197677 0.0059803
0.0206214 0.00985893 0.0316323
0.00172625 0.00165058 0.00477303
0.00216654 0.00299821 0.00823329
0.0076807 0.00421398 0.0126216
0.0973716 0.144269 0.360884
0.107572 0.163331 0.405479
0.120715 0.160864 0.402265
0.153251 0.155746 0.389848
0.000369264 0.000691019 0.00156223
0.000364669 0.000652782 0.00147251
0.0939457 0.106278 0.258562
0.000438706 0.000785266 0.00175154
0.103253 0.151081 0.359395
0.114171 0.116596 0.283143
0.0316275 0.0400066 0.0937497
0.0386331 0.0553573 0.128302
0.114231 0.173828 0.393229
0.0965938 0.145119 0.328388
0.125484 0.228569 0.488966
0.0322279 0.0602336 0.12737
0.00355071 0.000716279 0.00568788
0.00771345 0.00170288 0.0128575
0.00163713 0.00211661 0.00856194
0.000448932 0.000465423 0.00218219
0.000560696 0.00054178 0.00259041
0.00244378 0.000737613 0.00425619
0.00082446 0.000759062 0.00369354
0.00130631 0.000413324 0.00221718
0.00330179 0.00110494 0.0058769
0.00173291 0.000597253 0.00304529
0.00077447 0.000259862 0.0011654
0.00133923 0.000663308 0.00301312
0.000706912 0.000546463 0.00228605
0.000873696 0.000554814 0.00234664
0.000776008 0.000273542 0.00116401
0.000886456 0.000407488 0.00170353
0.000686428 0.000255288 0.00103431
0.000758371 0.000387548 0.00155995
0.000823932 0.000352719 0.00143193
0.000690109 0.000521155 0.00196735
0.000652839 0.000559093 0.00208725
0.000741661 0.000337351 0.00129704
0.000892585 0.000329389 0.00129625
0.000750688 0.000347944 0.00131326
0.000537071 0.000276936 0.000939116
0.00054189 0.000277476 0.00093261
0.00045338 0.000262574 0.000848829
0.00040343 0.000260317 0.000827372
0.000486573 0.000269704 0.000877363
0.000534186 0.000278523 0.000918809
0.000395055 0.000262949 0.000813048
0.000476382 0.000269822 0.000857475
0.000188851 0.000283045 0.000814085
0.000442796 0.000262343 0.000815911
0.000386707 0.000261819 0.000779835
0.00040955 0.000266955 0.000788273
0.000516884 0.000313533 0.000938614
0.000581435 0.000306926 0.00094538
0.000568697 0.000316037 0.000959107
0.000621383 0.000339753 0.00101304
0.00228174 0.00252868 0.00724733
0.00547906 0.00475629 0.0139304
0.0176614 0.00894587 0.0277536
0.20509 0.136819 0.369677
0.0493175 0.0371386 0.0978592
0.0504709 0.033701 0.0899693
0.0723351 0.109972 0.271607
0.0371269 0.0262069 0.0685167
0.000338503 0.000668678 0.00151731
0.0342236 0.027135 0.0686997
0.109244 0.135614 0.317998
0.28202 0.341527 0.785899
0.115479 0.197751 0.427153
0.004941 0.00378602 0.0284402
0.00284371 0.00231263 0.0147564
0.0142275 0.00297852 0.0238055
0.00764835 0.00168103 0.0128798
0.00119307 0.00102838 0.00587186
0.00202858 0.000565088 0.00347637
0.000963952 0.000849205 0.0042926
0.00105164 0.000882223 0.0044018
0.00253289 0.000790952 0.00446198
0.00139045 0.000436989 0.00236638
0.0011758 0.000378201 0.00197866
0.00239109 0.000782241 0.0042218
0.0012636 0.000417275 0.00210031
0.00153304 0.000616289 0.00298174
0.0017363 0.000628521 0.00310547
0.00114838 0.000404218 0.00190912
0.000901485 0.000301742 0.00139172
0.00087375 0.000437759 0.00187498
0.000457397 0.000486858 0.00187383
0.000752152 0.000331271 0.00130419
0.000767567 0.000533715 0.00205374
0.000671602 0.00053015 0.00199732
0.000786975 0.000353433 0.00137908
0.000550497 0.000320118 0.00110556
0.000596568 0.00029835 0.00104632
0.000667548 0.000289684 0.00103678
0.000576532 0.000287191 0.000989254
0.000429482 0.000278322 0.000911367
0.000542242 0.000265239 0.000887868
0.000532579 0.000255456 0.000841997
0.000391937 0.00025781 0.000805913
0.000429405 0.00025924 0.000817017
0.000507281 0.000273762 0.00088445
0.000498521 0.000274776 0.000875225
0.000480314 0.000275442 0.000867291
0.000512909 0.000263045 0.000831376
0.000593754 0.000317853 0.00101606
0.55678 0.264537 0.849089
0.00129373 0.00174567 0.00487816
0.00203995 0.00235469 0.00659155
0.0043977 0.00486702 0.013795
0.00349284 0.00366484 0.0103999
0.0760541 0.0992968 0.231509
0.00370168 0.000748027 0.00594499
0.00227945 0.000813168 0.00427309
0.00181653 0.000681495 0.00341371
0.00144415 0.000602444 0.00282947
0.00121644 0.000661842 0.00297318
0.00141162 0.000534016 0.00250875
0.000537161 0.000227827 0.000899094
0.000610531 0.000519006 0.00206087
0.000442425 0.000471779 0.00180484
0.000816071 0.00051565 0.00207822
0.000878872 0.000373435 0.00154804
0.000823718 0.000420626 0.0016986
0.000568432 0.000541219 0.00201221
0.000617461 0.000342194 0.00124849
0.000638713 0.000276317 0.000972343
0.000562782 0.000267102 0.000894515
0.000390268 0.00025933 0.000800788
0.000438353 0.000261339 0.000820401
0.0004365 0.000261312 0.000805912
0.000390202 0.000285062 0.000859656
0.000440846 0.00027697 0.000818885
0.00784528 0.00409566 0.0124471
0.00795129 0.00456295 0.0136226
0.00703219 0.00388749 0.0115796
0.0307028 0.024558 0.0619606
0.0893331 0.1114 0.261747
0.106465 0.1269 0.294662
0.0115218 0.0258969 0.0539834
0.00443825 0.00357193 0.0271303
0.00531524 0.00117756 0.00866773
0.00534301 0.00131194 0.00903535
0.00322863 0.000913464 0.00561708
0.00293531 0.000947214 0.00525709
0.00300802 0.000970469 0.00532705
0.00187533 0.000579074 0.00311759
0.000891591 0.000280289 0.00130666
0.00150881 0.000561305 0.00268408
0.000270237 0.000335905 0.00129811
0.000871903 0.000422576 0.00183617
0.000725847 0.000552606 0.00228385
0.000453802 0.0004901 0.00183875
0.000557966 0.000264415 0.000909872
0.000475717 0.000269339 0.000887211
0.000517499 0.000279422 0.000899051
0.00133212 0.000534538 0.00193525
0.000387903 0.000257574 0.000781323
0.000616233 0.000319326 0.00102218
0.000591845 0.000291128 0.000927166
0.00114413 0.0004928 0.00169248
0.000572364 0.000296793 0.000924402
0.000397669 0.000293505 0.000847904
0.000594978 0.000334938 0.00102298
0.0328199 0.0222288 0.0601364
0.114702 0.132961 0.33191
0.10321 0.123846 0.304646
0.0445555 0.0651198 0.151728
0.00761032 0.00596006 0.0452399
0.00704236 0.0015538 0.0118022
0.000204424 0.000275353 0.00126659
0.00214912 0.000556293 0.00351569
0.0020796 0.000696449 0.00367374
0.000701052 0.000630033 0.00283397
0.00149898 0.000634137 0.00313906
0.00165089 0.00053822 0.00277012
0.00202544 0.000809946 0.00404796
0.00133701 0.000458948 0.00221486
0.000728936 0.000538752 0.00216784
0.000825828 0.00051106 0.00209046
0.000607905 0.000257429 0.00101388
0.000637584 0.000324174 0.00119397
0.000575387 0.000267474 0.0009494
0.000540418 0.000279041 0.000938056
0.000385527 0.000271865 0.000801452
0.00196542 0.00198476 0.00567727
0.0166786 0.00843965 0.0262179
0.113111 0.119432 0.295404
0.0297849 0.0420202 0.100496
0.0503926 0.063913 0.153857
0.0735685 0.087933 0.212507
0.041208 0.0473175 0.112861
0.0568016 0.0706639 0.166672
0.000343847 0.000877189 0.00181206
0.00383337 0.000863092 0.00627184
0.00154697 0.000452239 0.00258188
0.00232153 0.000795542 0.00424139
0.000827751 0.000421825 0.0017633
0.000810803 0.000346487 0.00141627
0.000818221 0.000303588 0.0012534
0.00107907 0.000606483 0.00248082
0.000251437 0.00032178 0.00103658
0.00042896 0.000270901 0.00089849
0.000533799 0.000278749 0.000931181
0.000380823 0.000283985 0.000861689
0.000392681 0.000262132 0.000795164
0.000398612 0.000258589 0.000787378
0.000403491 0.000253656 0.00077103
0.000186424 0.000283277 0.000760737
0.0025499 0.00274859 0.00785657
0.00409891 0.0037021 0.0107779
0.0159645 0.0108784 0.0291729
0.090311 0.156064 0.339677
0.000840138 0.000728198 0.00371162
0.000955983 0.000823649 0.00404732
0.0022636 0.000738126 0.00405765
0.000481219 0.000489093 0.00194682
0.00110827 0.000638668 0.00265918
0.000481239 0.000513575 0.00193812
0.00709364 0.00403626 0.012165
0.00282162 0.00198705 0.00570567
0.0444958 0.0301682 0.0807393
0.057458 0.0375876 0.101019
0.0672977 0.10325 0.242703
0.117411 0.0657849 0.312331
0.11434 0.063286 0.304387
0.193587 0.13941 0.900368
0.247448 0.180038 1.2566
0.232095 0.171669 1.08119
0.25537 0.18401 1.31942
0.212742 0.160047 0.94775
0.141913 0.10019 0.381619
0.22431 0.171291 1.07947
0.337603 0.180362 1.41305
0.128124 0.212305 0.797692
0.143054 0.169662 0.673324
0.149599 0.188046 0.899921
0.212974 0.170773 1.04615
0.213541 0.168853 1.05643
0.00165303 0.00176684 0.00984827
0.00334335 0.00137463 0.00692093
0.147647 0.201358 0.934573
0.235537 0.259219 1.15473
0.0351127 0.0359575 0.154165
0.03535 0.0370674 0.162977
0.22287 0.214226 0.833294
0.143546 0.204655 0.735854
0.14553 0.190625 0.695119
0.139899 0.184354 0.571747
0.2013 0.159123 0.92449
0.00325686 0.00160191 0.006675
0.004755 0.00191427 0.00876492
0.128683 0.248915 0.825402
0.142432 0.186285 0.663837
0.141192 0.183522 0.656364
0.153165 0.18519 0.774916
0.222699 0.304397 1.01119
0.00555331 0.0011915 0.00825874
0.0047522 0.00172631 0.00929135
0.00481449 0.0023199 0.00885463
0.00485384 0.00134768 0.00754772
0.00297151 0.000976268 0.00485554
0.00618611 0.00216012 0.00976712
0.00194394 0.000843787 0.00346346
0.00292297 0.000980066 0.00479002
0.0444036 0.0359317 0.198588
0.00239483 0.00100549 0.0040652
0.00324963 0.00141757 0.00645948
0.00266485 0.00110867 0.00442021
0.00250468 0.0010477 0.00421443
0.0391738 0.0325487 0.176025
0.00667736 0.00597739 0.0287212
0.438031 0.259726 1.59369
0.429428 0.307696 1.69008
0.421491 0.311858 1.69116
0.056126 0.0344233 0.22837
0.421981 0.299843 1.62466
0.403177 0.249437 1.3107
0.331028 0.146882 0.841623
0.273242 0.111366 0.633767
0.0588756 0.0337243 0.177699
0.360473 0.226084 1.05234
