0.228181 0.185685 3.13663
-0.201474 0.187132 3.14021
0.116624 0.184971 3.12525
0.200569 0.185039 3.11816
0.218609 0.187857 3.15636
0.348508 0.195876 3.20446
0.191298 0.187983 3.11797
-0.21755 0.186691 3.09167
0.344876 0.199062 3.20104
0.220775 0.194055 3.13392
-0.23538 0.193159 3.12734
0.211754 0.196429 3.15208
0.184242 0.196324 3.11545
0.176203 0.198021 3.11659
0.250087 0.198479 3.14413
0.172189 0.20463 3.13312
0.232042 0.206764 3.1331
0.235842 0.205972 3.11726
0.340078 0.218242 3.1996
-0.159854 0.231888 3.23729
0.0934326 0.236207 3.25812
0.214575 0.234875 3.22728
-0.178559 0.23402 3.17476
0.217425 0.242144 3.22654
0.15976 0.246352 3.17259
0.2778 0.253546 3.22687
-0.213231 0.24136 3.08685
0.197423 0.263932 3.2319
0.209195 0.264756 3.21634
0.166497 0.267934 3.21487
0.178022 0.267746 3.21408
0.213694 0.269393 3.21789
-0.207387 0.255328 3.08522
-0.260869 0.257342 3.08034
-0.211 0.261533 3.11823
-0.275247 0.266111 3.11746
-0.175166 0.286241 3.24382
-0.225512 0.265303 3.09474
-0.175121 0.289152 3.24339
-0.274045 0.273532 3.12782
-0.24801 0.263755 3.06694
0.0815207 0.252029 2.87842
0.195419 0.285811 3.20953
0.311695 0.289312 3.23499
0.140018 0.291445 3.21376
0.0738472 0.296262 3.23217
0.204162 0.292792 3.21707
0.136891 0.295246 3.21129
0.0941649 0.299291 3.21553
0.132017 0.299717 3.20724
0.142909 0.300526 3.21669
-0.0926188 0.305092 3.21771
0.117385 0.303878 3.20888
0.217546 0.303378 3.21017
-0.173895 0.308224 3.22357
-0.178844 0.306912 3.20686
0.0737034 0.309385 3.21646
0.214697 0.308626 3.21107
-0.148731 0.314173 3.22325
-0.0099051 0.313902 3.22066
-0.201614 0.307106 3.17304
-0.181813 0.308312 3.18012
-0.160814 0.315028 3.21981
-0.13766 0.312947 3.20697
0.219095 0.315559 3.2301
-0.222825 0.301866 3.12451
-0.224977 0.304746 3.12446
0.110251 0.319314 3.21282
0.213273 0.320725 3.21081
0.303066 0.325762 3.2353
-0.170542 0.324392 3.21391
-0.0531989 0.323804 3.21078
0.108147 0.322919 3.20452
-0.0742784 0.324804 3.20675
-0.183365 0.323612 3.17843
-0.096837 0.330341 3.22192
-0.170647 0.331369 3.21987
-0.108838 0.328959 3.20567
0.0762162 0.332259 3.20969
-0.17905 0.329979 3.18632
0.204583 0.335099 3.21304
-0.0154513 0.342194 3.23902
0.0684017 0.339358 3.22459
0.178552 0.335792 3.20568
-0.202779 0.331386 3.1688
-0.115944 0.340293 3.21969
-0.107773 0.340799 3.21182
0.0694775 0.3442 3.23538
0.0731905 0.345134 3.24068
0.0746957 0.345241 3.24157
0.214062 0.338676 3.20485
-0.0102246 0.346465 3.23791
-0.185005 0.347289 3.20038
0.234184 0.349901 3.21159
-0.182794 0.34282 3.15076
-0.218637 0.340905 3.13642
0.116381 0.35836 3.20155
0.239352 0.361211 3.21163
-0.2657 0.346053 3.11409
0.237099 0.369561 3.2442
-0.188843 0.357437 3.14736
0.231172 0.374326 3.24532
0.225051 0.384767 3.21568
0.163487 0.388307 3.20236
0.225761 0.390214 3.21183
-0.172207 0.390526 3.21036
-0.174869 0.397339 3.20251
0.197344 0.401123 3.21769
0.118519 0.403076 3.21428
-0.218489 0.39157 3.12217
-0.273022 0.403501 3.12961
-0.265499 0.399613 3.10764
-0.268822 0.408 3.13326
-0.161602 0.424415 3.21528
-0.0203334 0.425539 3.22708
-0.158504 0.426855 3.22033
-0.261191 0.425626 3.18348
-0.0243872 0.427946 3.20247
0.0554517 0.427643 3.20224
0.0633795 0.431085 3.22477
-0.0786472 0.434968 3.22634
0.0890787 0.428784 3.19748
-0.0138197 0.431635 3.19903
-0.0612911 0.434524 3.20988
-0.0435814 0.43276 3.19898
0.0512089 0.434381 3.20664
0.0626407 0.436928 3.22301
-0.155663 0.434738 3.19639
0.0897059 0.436754 3.20698
0.165847 0.445293 3.24485
0.12461 0.439419 3.19627
0.163352 0.441158 3.19925
-0.156922 0.452051 3.2432
0.00580667 0.443609 3.19135
-0.135239 0.444858 3.18585
-0.152342 0.44709 3.18616
-0.00112144 0.448029 3.20198
-0.0107019 0.450889 3.20053
-0.269985 0.454531 3.17751
-0.0520059 0.458365 3.19772
0.0733398 0.473158 3.26737
-0.0984169 0.461295 3.19415
0.0721141 0.46492 3.20924
-0.144581 0.464 3.1949
-0.0649613 0.469819 3.21357
-0.0567845 0.471234 3.21303
-0.26021 0.471472 3.16133
0.0916801 0.476146 3.21372
0.0726124 0.486141 3.23047
-0.258785 0.482397 3.15902
0.103387 0.48582 3.187
-0.178646 0.497025 3.20346
-0.283401 0.0462787 3.03381
-0.305593 0.0468102 2.63243
0.34013 0.119874 3.22711
0.340731 0.144368 3.21569
0.29491 0.139425 3.14181
0.28505 0.143011 3.142
0.248662 0.143495 3.1282
0.24746 0.145753 3.11817
0.157222 0.150735 3.13608
0.170232 0.151434 3.12886
0.196106 0.158457 3.13234
0.249112 0.161988 3.1244
0.346233 0.170683 3.20008
0.241767 0.169289 3.15766
0.0862766 0.171264 3.14321
0.157115 0.169615 3.12088
0.351086 0.184038 3.21043
0.196919 0.180816 3.11836
0.347223 0.190509 3.20291
0.181348 0.184318 3.14547
0.303911 0.182752 3.12867
-0.211805 0.185509 3.13765
0.116434 0.180577 3.08307
0.202037 0.187019 3.14455
0.235859 0.188961 3.15113
-0.219495 0.189409 3.12788
0.205076 0.189259 3.11805
0.191652 0.192779 3.11737
0.203055 0.192149 3.11381
0.221282 0.195438 3.15071
0.24619 0.195696 3.11837
0.17826 0.200803 3.15036
0.242842 0.201338 3.12164
0.171239 0.20419 3.12354
0.151029 0.199894 3.07848
0.0735365 0.228706 3.25416
0.314859 0.220886 3.19061
-0.159461 0.232127 3.24122
0.0934326 0.236207 3.25812
0.251489 0.23831 3.23538
0.307405 0.234767 3.21338
-0.226411 0.242964 3.11411
0.213194 0.259904 3.21933
-0.21535 0.244484 3.11674
0.165684 0.268131 3.21429
0.172246 0.267354 3.21231
-0.194634 0.253118 3.09089
-0.204139 0.257405 3.09652
0.0956717 0.284896 3.24926
-0.175473 0.288646 3.2496
-0.271777 0.263889 3.08351
0.195292 0.285064 3.21072
-0.156882 0.293026 3.23467
-0.15058 0.29649 3.25313
-0.169285 0.295363 3.22988
0.0981362 0.296074 3.21947
0.198445 0.294509 3.21386
-0.140505 0.300295 3.23227
-0.136489 0.300283 3.23199
-0.271279 0.285428 3.12036
0.131817 0.30111 3.21964
0.142174 0.300334 3.21394
0.217602 0.302914 3.20959
-0.171466 0.312207 3.25143
0.0641743 0.309186 3.22474
-0.178754 0.307197 3.21041
0.213576 0.308801 3.21201
-0.182526 0.309057 3.18977
-0.147708 0.313733 3.21725
-0.131079 0.313995 3.21835
-0.113689 0.312625 3.20954
-0.0879454 0.315793 3.22821
-0.201268 0.307884 3.17654
-0.161139 0.314863 3.21384
-0.223325 0.302083 3.12744
-0.22515 0.304458 3.12097
-0.170195 0.323295 3.207
0.301174 0.324446 3.22111
0.0865285 0.325778 3.2067
-0.104085 0.328331 3.20865
-0.167411 0.329518 3.20532
0.302559 0.340692 3.25241
0.203183 0.33451 3.20756
-0.213013 0.332066 3.17054
-0.108609 0.342675 3.22986
-0.173223 0.341552 3.21362
0.0730779 0.342028 3.21439
0.212965 0.339159 3.2051
0.0912195 0.34949 3.2307
0.173949 0.346029 3.21359
0.101498 0.348872 3.21759
-0.17317 0.357982 3.23501
0.243589 0.356826 3.23276
0.0913227 0.360319 3.24119
-0.202479 0.340556 3.10862
0.123836 0.358851 3.21472
-0.26787 0.348578 3.13439
-0.264272 0.355864 3.11887
0.171558 0.376591 3.19193
0.179306 0.382704 3.20703
0.229378 0.389055 3.22844
0.165769 0.386 3.20538
-0.172702 0.390527 3.21034
0.181879 0.39688 3.2114
0.117658 0.397692 3.21007
0.196823 0.400712 3.21396
0.116828 0.405236 3.22062
0.196451 0.412874 3.24774
-0.272331 0.402564 3.12616
-0.26883 0.40714 3.12694
-0.155105 0.424686 3.22985
-0.147038 0.422971 3.21265
-0.182876 0.416186 3.17604
-0.158824 0.427244 3.22375
-0.0186909 0.426611 3.22619
-0.155565 0.429601 3.20989
-0.164367 0.433432 3.20739
-0.014166 0.431536 3.19869
-0.0620202 0.432592 3.19555
0.0625847 0.43268 3.19539
-0.151676 0.434672 3.19345
-0.0083851 0.438077 3.21041
0.0887961 0.434583 3.19044
0.162084 0.440853 3.20017
-0.167947 0.441102 3.18674
-0.15615 0.444717 3.19651
-0.088197 0.443496 3.20718
0.160199 0.451377 3.2439
-0.0994405 0.446192 3.20164
0.0733146 0.447531 3.21122
-0.0908827 0.446487 3.19097
-0.0846549 0.448862 3.20614
-0.0083713 0.448759 3.20816
-0.00245602 0.448709 3.20792
-0.0509387 0.454121 3.20584
-0.0523574 0.458771 3.20103
-0.0648189 0.470758 3.22089
-0.0567043 0.471705 3.2167
0.072307 0.486083 3.23015
-0.197648 0.486155 3.18393
-0.168516 0.49274 3.22001
-0.178532 0.496015 3.19592
-0.255858 0.497271 3.16344
0.317968 0.0954411 3.22737
-0.306041 0.0467898 2.635
0.314169 0.112725 3.18869
0.339902 0.11831 3.22118
0.34046 0.127239 3.22639
0.338184 0.134217 3.22078
-0.247905 0.13016 3.10377
0.295088 0.139517 3.14555
0.341847 0.145278 3.19762
0.284529 0.142908 3.13812
0.195639 0.15787 3.15011
0.350179 0.172698 3.23009
0.248043 0.163256 3.14661
0.0394933 0.168476 3.13867
0.0615387 0.167653 3.11686
0.240802 0.167041 3.12806
0.234485 0.174684 3.15312
0.194502 0.17405 3.11379
0.211526 0.184428 3.15622
0.282765 0.18474 3.15572
-0.238492 0.180281 3.09347
0.116633 0.18114 3.09765
0.250005 0.184017 3.11629
0.234474 0.188913 3.15138
0.343945 0.20171 3.2059
0.175071 0.195818 3.12048
0.183291 0.195741 3.12069
0.168351 0.202138 3.12091
0.152549 0.204299 3.12806
0.236865 0.206501 3.12861
-0.238826 0.207534 3.12863
0.336251 0.216754 3.1916
-0.159763 0.231859 3.23667
0.30895 0.236042 3.23717
-0.227845 0.241897 3.12125
0.21147 0.257882 3.21451
0.206669 0.26397 3.21888
-0.198056 0.256785 3.13447
0.212561 0.272156 3.23008
-0.273092 0.264594 3.09439
-0.224961 0.264317 3.08017
0.193937 0.283137 3.20398
0.0848758 0.291007 3.23343
0.207964 0.287897 3.21675
0.211849 0.2881 3.21444
-0.169886 0.293244 3.23007
-0.150238 0.296529 3.25345
0.310617 0.29068 3.22656
-0.157841 0.297843 3.24832
0.161557 0.300311 3.22938
-0.271279 0.285428 3.12036
-0.16851 0.303618 3.23165
0.13067 0.300821 3.21466
0.217455 0.300131 3.20628
-0.179766 0.305044 3.2145
-0.148028 0.313362 3.21282
-0.0878312 0.315479 3.22423
0.0420903 0.295099 3.0417
0.217665 0.314399 3.21162
-0.224942 0.304803 3.12515
0.0862996 0.326726 3.21827
0.307847 0.328546 3.22829
-0.174916 0.323755 3.20169
-0.166778 0.327539 3.2065
-0.120077 0.327488 3.20622
0.0746297 0.334228 3.2365
-0.11608 0.340399 3.22095
-0.110251 0.342757 3.23433
0.249253 0.348134 3.258
-0.0888256 0.349098 3.23377
0.100953 0.347791 3.20557
-0.217802 0.340404 3.13625
0.0908628 0.355162 3.22039
0.243589 0.356826 3.23276
-0.215197 0.3431 3.13304
0.116245 0.360621 3.20342
0.237503 0.368989 3.23938
-0.265112 0.356604 3.12666
0.172173 0.377216 3.2
0.11579 0.380581 3.20947
0.228993 0.388998 3.22808
0.21912 0.396885 3.24679
-0.219015 0.376242 3.12533
0.116054 0.398312 3.21144
0.194796 0.409737 3.23372
0.182521 0.413689 3.24307
-0.271302 0.402863 3.13606
-0.157666 0.423117 3.19945
-0.143839 0.43273 3.19831
-0.0981199 0.434335 3.21302
-0.0775073 0.432459 3.20464
0.112807 0.438186 3.22285
-0.00787092 0.438624 3.21492
-0.166774 0.442204 3.18694
-0.0997076 0.447201 3.21001
-0.0135516 0.445086 3.19876
0.0589966 0.447324 3.21396
0.0713109 0.446871 3.20303
-0.133042 0.445665 3.18255
-0.00174678 0.446103 3.19185
-0.144493 0.451396 3.20485
-0.0994134 0.463489 3.21164
-0.0690315 0.463193 3.21206
-0.0568637 0.472806 3.22529
0.0696798 0.483072 3.20385
-0.171649 0.491754 3.22415
0.086161 0.496623 3.24839
-0.272727 0.498651 3.17612
-0.325339 0.0534446 2.80033
0.313978 0.112791 3.19312
-0.248832 0.130214 3.10766
0.166332 0.150908 3.15886
0.15648 0.150701 3.13502
0.249944 0.164374 3.15326
0.241498 0.167349 3.13715
0.0428129 0.173293 3.12771
0.249274 0.170887 3.14546
0.232486 0.174681 3.15052
0.350799 0.183743 3.21203
-0.241525 0.183951 3.13721
0.114324 0.181739 3.10201
0.210351 0.185772 3.15476
0.227832 0.186227 3.15784
0.282847 0.185564 3.155
0.249437 0.183836 3.11172
0.26499 0.184632 3.1189
-0.195454 0.187297 3.10697
0.172143 0.193994 3.14117
0.34265 0.202214 3.20263
0.177898 0.197587 3.14591
0.18371 0.195748 3.12084
0.247466 0.195187 3.12243
0.243077 0.199855 3.14527
0.0944129 0.198945 3.10034
0.168023 0.202731 3.13407
0.196157 0.202122 3.11429
0.236784 0.206703 3.13298
0.338012 0.217302 3.19913
-0.237284 0.208388 3.12051
0.308568 0.234179 3.24225
-0.190894 0.223637 3.08544
-0.204398 0.228133 3.11266
-0.227501 0.241285 3.11931
0.205211 0.265279 3.22092
-0.194033 0.252677 3.08369
0.110382 0.27277 3.21342
-0.273692 0.255121 3.08402
-0.20402 0.257628 3.09978
-0.261476 0.257575 3.08417
0.110053 0.278381 3.21685
0.105214 0.283737 3.21825
-0.270724 0.263166 3.0725
-0.224771 0.264338 3.08034
-0.182391 0.294319 3.26758
0.194146 0.283932 3.2114
0.309699 0.289002 3.22281
0.0684376 0.294664 3.23669
0.0774116 0.295138 3.24027
0.100558 0.290802 3.21441
0.0877085 0.298009 3.21123
0.160979 0.298469 3.21271
0.118209 0.303 3.22782
0.22014 0.299882 3.21385
-0.201508 0.307217 3.17437
-0.155731 0.314713 3.2184
-0.138798 0.312916 3.2072
-0.112292 0.312183 3.20275
-0.0881099 0.315058 3.21912
-0.223231 0.302285 3.12994
-0.148058 0.317254 3.21819
-0.179444 0.319726 3.18808
-0.135199 0.327283 3.21685
0.0866066 0.326359 3.21375
-0.165726 0.329601 3.21569
-0.11666 0.328093 3.20652
-0.0252755 0.327378 3.20671
0.3062 0.334295 3.22712
0.217536 0.333405 3.21405
0.0718537 0.342577 3.23234
0.0954123 0.339333 3.21519
-0.0707692 0.346928 3.22623
-0.0899414 0.352459 3.24298
0.0901103 0.350379 3.23404
0.172753 0.344787 3.20289
0.0599077 0.353097 3.22875
-0.218138 0.339494 3.12633
0.184205 0.366968 3.21317
-0.267084 0.357534 3.12765
0.158477 0.367516 3.1881
-0.185698 0.358993 3.12339
0.22225 0.389265 3.24664
0.179765 0.385665 3.21521
0.21635 0.391806 3.21025
0.181541 0.392874 3.20707
0.170392 0.404024 3.24224
0.179431 0.406587 3.24109
0.182684 0.409202 3.22036
0.113297 0.408753 3.21331
-0.169004 0.419677 3.2165
-0.155329 0.420211 3.20664
-0.182764 0.416379 3.17776
-0.162057 0.427035 3.23244
-0.0215119 0.428032 3.22975
0.0644962 0.425068 3.21012
-0.169086 0.431109 3.21193
-0.0143828 0.433447 3.21749
0.061107 0.432604 3.20801
-0.00788865 0.439208 3.21989
-0.00916785 0.450391 3.22182
-0.0056058 0.445321 3.18977
0.0668506 0.44633 3.18703
0.0778186 0.449996 3.19252
-0.053075 0.452833 3.19405
-0.266366 0.458678 3.16114
-0.0989762 0.460913 3.19115
-0.0683688 0.460666 3.1919
0.090872 0.475846 3.21175
0.0700186 0.486477 3.2228
0.0792809 0.483324 3.20713
-0.202034 0.488404 3.17109
-0.179601 0.496726 3.20075
0.331975 0.102074 3.2353
0.318122 0.110962 3.22688
0.342464 0.117525 3.22531
0.108247 0.161717 3.11911
0.251439 0.163293 3.15049
0.235114 0.173775 3.15152
0.252207 0.170311 3.13927
0.350903 0.183314 3.20923
0.229107 0.184231 3.15247
-0.207383 0.184504 3.12946
0.193476 0.186581 3.14745
0.250298 0.184262 3.12252
0.267475 0.186624 3.14973
0.093179 0.189666 3.12781
0.209226 0.192254 3.13422
-0.201596 0.193486 3.12885
0.178698 0.195764 3.14763
0.186998 0.19626 3.13951
0.111119 0.196378 3.11166
0.169111 0.203236 3.14519
0.0751192 0.228886 3.25725
0.317146 0.220895 3.19553
-0.193516 0.227513 3.13443
-0.202355 0.225148 3.08631
-0.219331 0.24229 3.12303
0.180826 0.262226 3.21323
0.202641 0.26507 3.2189
-0.211712 0.253288 3.09741
-0.19506 0.253663 3.09956
0.111227 0.271388 3.21442
-0.273089 0.264528 3.09344
-0.172128 0.291719 3.23321
0.313248 0.29009 3.24444
-0.149591 0.296756 3.25609
0.0617564 0.282271 3.0167
0.20915 0.288859 3.21499
0.138333 0.291519 3.20847
0.220263 0.296013 3.20284
-0.171389 0.31007 3.22458
0.0788055 0.308938 3.21068
-0.103935 0.313542 3.22576
-0.201831 0.307747 3.17713
-0.14535 0.316396 3.22552
-0.0870733 0.31376 3.20607
-0.00855028 0.316994 3.22783
0.0714612 0.31712 3.21257
-0.0823266 0.325599 3.22435
0.308908 0.326493 3.22975
-0.134708 0.327338 3.21727
-0.119416 0.327433 3.21766
-0.02897 0.327768 3.21894
-0.164936 0.329176 3.21037
0.305651 0.331187 3.2207
0.0746014 0.332368 3.21335
-0.171697 0.337172 3.21524
-0.213744 0.330161 3.16281
-0.115992 0.340496 3.22201
0.0981313 0.334918 3.19322
-0.100856 0.345585 3.22605
0.125832 0.343556 3.20769
0.108298 0.349806 3.22564
-0.217818 0.340049 3.13235
0.105172 0.358777 3.22395
0.232091 0.360177 3.23238
-0.266735 0.358034 3.14173
0.159785 0.368573 3.20363
0.182559 0.386169 3.22057
0.218692 0.394374 3.24527
0.182027 0.392476 3.22058
0.194266 0.395453 3.21128
0.196629 0.412023 3.25457
-0.273629 0.396411 3.12696
-0.15456 0.424562 3.23418
-0.0791442 0.424934 3.2237
-0.0230546 0.424867 3.22464
-0.0771515 0.434968 3.22608
-0.00462729 0.432254 3.19674
0.159922 0.437779 3.19971
-0.00282405 0.444349 3.21127
0.0591737 0.44466 3.21285
-0.143925 0.444563 3.18879
-0.134638 0.447505 3.20503
0.117278 0.446848 3.1954
0.0802589 0.446613 3.18685
-0.0537704 0.451137 3.19482
-0.268358 0.461523 3.18134
0.0894544 0.456632 3.18796
-0.147222 0.465204 3.20912
-0.0996717 0.461643 3.19699
-0.061094 0.469767 3.22173
0.0691597 0.479433 3.23683
0.0911219 0.483086 3.23718
0.0723301 0.486004 3.23591
-0.170597 0.491149 3.23044
-0.203273 0.491065 3.1908
0.243234 0.148466 3.13122
0.240916 0.16489 3.14777
0.191036 0.186522 3.15374
0.0940308 0.189163 3.12531
-0.204273 0.194235 3.13327
0.110669 0.195819 3.09883
0.165431 0.203259 3.13196
0.253482 0.200352 3.11843
-0.17474 0.237625 3.24166
-0.221638 0.238753 3.07973
0.20358 0.262874 3.2144
-0.197131 0.256616 3.13471
-0.278125 0.258559 3.12448
-0.216653 0.256589 3.11242
-0.274849 0.267422 3.1191
-0.22841 0.263856 3.08218
0.103065 0.284118 3.20967
0.0817775 0.292992 3.24112
0.136012 0.292443 3.21543
-0.126587 0.30322 3.23443
0.218834 0.302291 3.23732
-0.139965 0.308096 3.2195
0.308177 0.333042 3.23261
-0.213429 0.331022 3.16073
-0.0774507 0.342898 3.22851
0.0888517 0.343248 3.23322
-0.217917 0.339407 3.12532
-0.172114 0.355536 3.21288
0.240773 0.358371 3.23613
-0.269569 0.368802 3.1281
0.16967 0.403502 3.21052
0.185872 0.40516 3.21503
0.194457 0.412476 3.26032
-0.169589 0.415233 3.20876
-0.1548 0.419591 3.21326
-0.185211 0.414596 3.16912
-0.163103 0.426926 3.21157
0.115278 0.434815 3.23918
-0.0994814 0.434999 3.2189
-0.077396 0.433244 3.21135
0.0678498 0.436187 3.20886
0.158434 0.437413 3.2018
-0.168826 0.442023 3.18739
-0.00343438 0.444277 3.21082
0.0593033 0.442181 3.19701
-0.14304 0.445106 3.18971
-0.0843936 0.448059 3.20789
-0.058214 0.451867 3.18488
0.0665962 0.455934 3.21082
-0.151059 0.464123 3.2036
0.0904259 0.485876 3.23745
0.0704396 0.486558 3.22324
0.107466 0.482742 3.19345
-0.167878 0.492361 3.21737
-0.202606 0.488983 3.17519
-0.249568 0.506317 3.17688
0.289503 0.139969 3.18061
0.266922 0.166333 3.12142
0.104341 0.169362 3.09648
0.193562 0.173765 3.10595
0.116985 0.178223 3.10025
0.186125 0.18402 3.11831
0.225631 0.186192 3.1537
0.251532 0.186015 3.14739
0.0959151 0.186809 3.12507
0.174863 0.190569 3.14442
0.23088 0.194041 3.14853
0.241729 0.193535 3.13058
0.165431 0.203259 3.13196
0.228394 0.200559 3.11802
0.256271 0.20276 3.14618
0.104817 0.239057 3.25749
-0.184661 0.241076 3.15082
0.108955 0.273948 3.25308
-0.21536 0.254771 3.10096
-0.236087 0.268516 3.10689
0.102809 0.28355 3.20151
-0.163656 0.263363 2.96145
0.209333 0.288946 3.21343
-0.154247 0.303555 3.24148
0.217555 0.298858 3.21262
0.0634017 0.328952 3.2351
-0.109156 0.329321 3.21007
-0.0160809 0.331316 3.21341
0.217859 0.333485 3.21491
-0.0784068 0.342904 3.23693
0.090031 0.3398 3.22207
0.24803 0.343769 3.21005
0.102761 0.3589 3.20563
0.23829 0.367333 3.25201
0.155828 0.364535 3.18873
0.185883 0.370456 3.20019
0.1786 0.385739 3.20578
0.162915 0.387669 3.16944
-0.167713 0.416953 3.21786
-0.141163 0.427781 3.23052
-0.0912644 0.425396 3.22115
0.114816 0.472003 3.5734
-0.0779737 0.434206 3.2197
-0.0292865 0.43417 3.22093
0.0459998 0.438903 3.22235
0.156167 0.437187 3.20113
-0.0868436 0.447627 3.21684
-0.00671875 0.444519 3.19849
0.05938 0.44853 3.22391
0.0642556 0.453969 3.19928
0.0875624 0.45785 3.19644
-0.0986794 0.460441 3.18765
-0.0766605 0.460317 3.18863
0.0692205 0.483319 3.20419
0.104218 0.481528 3.19157
-0.167768 0.491121 3.20801
-0.2711 0.500814 3.19434
0.156225 0.150516 3.12853
0.230315 0.162446 3.19169
0.237184 0.146526 3.06182
0.258672 0.174572 3.13915
0.122719 0.179369 3.12075
0.0971593 0.187856 3.12031
0.239842 0.187 3.10078
0.128863 0.193512 3.12299
0.259509 0.199463 3.15666
0.165924 0.203688 3.14138
0.227765 0.200953 3.12688
0.280081 0.204485 3.15665
-0.172686 0.236911 3.26046
-0.198536 0.227189 3.08645
-0.18136 0.250702 3.1402
-0.200874 0.25106 3.12482
0.112513 0.272889 3.25219
-0.166514 0.289421 3.25351
0.211091 0.290671 3.20783
0.0594157 0.315053 3.21517
0.0634017 0.328952 3.2351
-0.0964337 0.347151 3.24592
-0.0783381 0.341614 3.21433
0.126468 0.343463 3.20176
0.0838386 0.355053 3.23062
-0.170337 0.358989 3.22202
0.12116 0.366383 3.19267
-0.195748 0.358014 3.13143
-0.185039 0.366754 3.11957
0.182454 0.394812 3.24359
-0.268252 0.388685 3.11077
-0.221199 0.392723 3.11164
0.175902 0.413235 3.21869
-0.0906797 0.425676 3.23165
0.0991231 0.41875 3.18792
0.0794843 0.425989 3.19993
-0.105421 0.434251 3.2186
0.159159 0.438093 3.20172
-0.00944641 0.445932 3.19214
0.121138 0.44768 3.19624
-0.0737758 0.464254 3.20269
0.312708 0.170028 3.16251
-0.183026 0.187389 3.14287
0.322958 0.219519 3.19523
0.212733 0.241681 3.22935
-0.186029 0.217684 3.1412
0.309067 0.287185 3.22258
0.292369 0.291686 3.22189
-0.173515 0.299679 3.22083
0.248094 0.307105 3.2318
0.108497 0.305321 3.20442
0.0992693 0.347254 3.21384
0.111254 0.35579 3.20769
0.162653 0.381051 3.20043
0.18256 0.401501 3.21712
-0.00983837 0.428135 3.21017
-0.181639 0.41147 3.16388
-0.0134596 0.44262 3.19424
0.239534 0.204725 3.15019
0.312154 0.284425 3.23351
0.310032 0.297269 3.22369
0.162262 0.299042 3.21391
-0.170803 0.356495 3.22183
0.308712 0.290398 3.22288
0.30928 0.299874 3.22944
0.0673721 0.307422 3.22533
0.0717085 0.468673 3.20419
0.303152 0.124349 3.19797
0.338895 0.13853 3.21497
-0.266336 0.182905 3.13015
0.233792 0.189452 3.14794
0.252533 0.195464 3.14301
-0.184258 0.309169 3.1815
0.173807 0.343055 3.20212
0.0611264 0.433677 3.20296
0.0828143 0.488669 3.20725
0.255801 0.155206 3.16179
0.177191 0.193271 3.15037
0.336783 0.216572 3.20038
-0.224757 0.23855 3.11498
-0.190434 0.33896 3.1664
0.124726 0.354317 3.20623
0.158842 0.365875 3.20198
0.232527 0.170139 3.15338
0.311998 0.225896 3.18142
0.288138 0.292291 3.23023
0.135581 0.294353 3.21267
-0.203983 0.309052 3.1807
0.305017 0.334137 3.22664
0.174073 0.342198 3.20588
0.0832921 0.35582 3.22548
0.115186 0.365943 3.20344
0.0673394 0.482671 3.20593
-0.274104 0.259071 3.1262
-0.220125 0.253161 3.10854
0.208232 0.289702 3.20661
0.214577 0.334658 3.20464
0.170655 0.34418 3.20308
0.172112 0.411434 3.21149
0.0815634 0.231568 3.2172
-0.063863 0.323577 3.20961
-0.211474 0.33479 3.16545
0.312947 0.125587 3.20183
0.338934 0.136507 3.21449
0.343617 0.140831 3.21992
-0.175818 0.172983 3.25584
0.213264 0.164084 3.1634
0.226998 0.169982 3.15629
-0.193798 0.172948 3.15395
-0.10785 0.179303 3.16117
0.236589 0.173117 3.15014
0.101635 0.175797 3.13783
0.172037 0.188236 3.16078
-0.11349 0.193865 3.16581
0.238484 0.189534 3.15361
-0.171472 0.189846 3.14445
-0.167475 0.203918 3.15271
0.339074 0.218467 3.20013
-0.183228 0.214186 3.15352
0.155209 0.209307 3.14439
0.21353 0.2598 3.21559
0.173776 0.267216 3.21307
-0.177656 0.289793 3.22895
-0.167297 0.289857 3.22905
-0.18742 0.279283 3.19987
0.3106 0.290329 3.22241
0.299086 0.311446 3.31612
-0.173531 0.297359 3.21515
0.0692587 0.30201 3.222
0.0513353 0.305233 3.21409
0.0602319 0.305202 3.21423
0.0482365 0.313827 3.21584
-0.100296 0.315502 3.2097
-0.0109089 0.317909 3.20949
0.0748894 0.315267 3.20479
-0.0956023 0.321165 3.2086
0.266648 0.321693 3.21222
0.0537413 0.326861 3.21175
0.21884 0.332716 3.20407
-0.0877489 0.341648 3.21382
0.245328 0.340432 3.21037
0.117588 0.34888 3.20875
-0.239283 0.326923 3.13782
0.0834025 0.355473 3.21418
-0.186426 0.341057 3.14052
-0.208946 0.3562 3.14292
0.174092 0.377045 3.19633
0.168786 0.382344 3.20012
0.22134 0.388018 3.20973
0.182831 0.394862 3.20202
0.0863204 0.41432 3.22991
0.115106 0.40925 3.19659
-0.0970757 0.420638 3.20183
0.0655236 0.424547 3.20513
-0.139872 0.425577 3.20503
-0.0475557 0.428057 3.19374
-0.00755482 0.427998 3.19426
0.0673014 0.428157 3.19539
-0.0205867 0.429146 3.19369
0.132755 0.430595 3.19768
-0.0910284 0.432428 3.19476
-0.149858 0.433796 3.19134
0.113402 0.43436 3.1945
-0.0272308 0.438689 3.19043
-0.247269 0.437932 3.16791
0.0451269 0.442405 3.19006
0.114689 0.444313 3.19121
-0.095733 0.443328 3.18372
-0.141542 0.44485 3.18005
-0.0823536 0.458635 3.18282
-0.174344 0.483915 3.1991
-0.168997 0.484835 3.18901
0.0842969 0.484674 3.19866
0.0969458 0.479772 3.18559
-0.178707 0.491387 3.19816
-0.255702 0.496084 3.16364
-0.250753 0.500596 3.16423
0.315923 0.123057 3.21233
0.341619 0.144751 3.21526
0.34757 0.196439 3.20533
-0.0166382 0.188079 3.15232
0.229366 0.190885 3.16637
0.223426 0.189816 3.15317
-0.246191 0.190165 3.13433
0.244952 0.204366 3.15895
0.239864 0.208631 3.1534
0.21118 0.269386 3.21436
0.310083 0.299854 3.23346
0.0629498 0.302809 3.21764
0.161974 0.298384 3.21274
-0.110025 0.312258 3.21121
0.295375 0.337713 3.22928
0.213533 0.330128 3.2071
0.118135 0.365138 3.19583
0.18849 0.407136 3.21628
-0.169284 0.417467 3.20367
-0.14632 0.419516 3.20018
-0.00766611 0.420213 3.20028
-0.158711 0.42463 3.20221
-0.082619 0.426829 3.19874
-0.155067 0.428383 3.19289
-0.000982058 0.441988 3.18789
-0.135079 0.443865 3.17896
0.0675002 0.4559 3.18726
0.109015 0.48269 3.18418
-0.202041 0.489302 3.16235
-0.252534 0.500516 3.15829
0.340899 0.118254 3.22206
0.341585 0.139189 3.21839
0.335529 0.141149 3.21654
-0.203232 0.189621 3.15184
-0.183033 0.192476 3.15908
0.172 0.194241 3.15901
0.222263 0.192006 3.15635
-0.0956255 0.211388 3.16157
-0.182021 0.220626 3.14652
0.196856 0.263942 3.2172
-0.0570405 0.298092 3.22273
0.107382 0.315242 3.20151
-0.115797 0.339786 3.21357
0.0507128 0.352856 3.22857
-0.190756 0.364324 3.14686
-0.00766675 0.421255 3.2
-0.181714 0.412588 3.16562
-0.164976 0.431198 3.19292
-0.15214 0.432344 3.19315
0.113447 0.434333 3.20388
0.113911 0.445016 3.18686
-0.256148 0.496594 3.1713
0.30456 0.127513 3.20699
0.340156 0.14044 3.21437
0.251992 0.160471 3.164
0.248144 0.17055 3.14458
0.218947 0.185022 3.15423
0.251048 0.18584 3.15296
0.100221 0.184431 3.12836
0.244547 0.20141 3.16062
0.253843 0.194036 3.13757
0.110634 0.206076 3.15354
0.251847 0.207291 3.14867
-0.172153 0.293389 3.22926
-0.149116 0.293531 3.22948
-0.147942 0.301508 3.21564
-0.180794 0.304351 3.20272
-0.227473 0.270777 3.11449
-0.184659 0.308126 3.1794
-0.0888612 0.328832 3.21062
0.307246 0.335726 3.22687
0.246184 0.341833 3.20807
0.17441 0.341623 3.19873
0.0987123 0.352537 3.20347
-0.191081 0.345601 3.15785
0.182905 0.367407 3.2023
-0.190383 0.349374 3.14408
0.110313 0.407331 3.19848
-0.169341 0.415164 3.20174
0.11937 0.442087 3.20884
-0.200959 0.487198 3.15986
-0.264504 0.496209 3.16361
0.26825 0.119911 3.27011
0.335986 0.104391 3.22994
-0.174779 0.172837 3.27711
0.338141 0.14381 3.20287
-0.212963 0.163431 3.15845
0.176281 0.193478 3.14844
0.245938 0.197243 3.15333
0.238437 0.208505 3.16781
-0.171888 0.28352 3.22776
0.0591303 0.297091 3.23046
0.0691626 0.31306 3.21405
-0.203416 0.308645 3.18539
-0.0696745 0.324558 3.20048
-0.126058 0.343615 3.21452
0.0900658 0.339996 3.20815
0.172743 0.342211 3.20009
0.108933 0.353526 3.20215
-0.271698 0.395553 3.12839
-0.00507777 0.41955 3.19875
0.0441126 0.419611 3.1995
-0.13897 0.430908 3.18724
-0.270531 0.414192 3.13807
-0.165612 0.438445 3.18928
-0.0512911 0.438433 3.19155
0.117949 0.446923 3.19122
0.0638184 0.471562 3.19907
-0.176273 0.489396 3.18345
0.23242 0.172891 3.15479
0.208625 0.196985 3.16311
0.234204 0.195455 3.16016
-0.196742 0.232304 3.13535
-0.070184 0.294845 3.22796
-0.0958034 0.343961 3.21379
0.173498 0.342131 3.20621
-0.209523 0.335272 3.16754
-0.214552 0.337108 3.15004
0.115464 0.366847 3.20301
-0.185913 0.404773 3.15821
-0.0780267 0.422422 3.20088
-0.0138927 0.424349 3.19719
0.103119 0.414325 3.17617
-0.224692 0.139461 3.29009
0.0959498 0.168587 3.13463
0.23034 0.172286 3.1537
0.0788796 0.177966 3.1367
0.254412 0.17519 3.14943
-0.185607 0.184705 3.15815
0.204095 0.24894 3.21161
-0.205546 0.26 3.1405
0.0688112 0.307679 3.21585
-0.203862 0.308597 3.17961
0.10736 0.360387 3.19848
0.21944 0.387251 3.21207
0.165285 0.387184 3.19012
0.121791 0.425635 3.19339
0.0797871 0.436061 3.18385
-0.0598886 0.454472 3.18424
-0.180902 0.488982 3.17276
-0.16707 0.16577 3.24937
-0.183747 0.170908 3.17049
0.18073 0.193654 3.14819
0.1556 0.205269 3.15192
0.205885 0.244681 3.21272
-0.17589 0.274034 3.22374
-0.176446 0.289787 3.22087
-0.134121 0.3096 3.21808
0.24902 0.340503 3.21097
0.170281 0.386127 3.19654
-0.167413 0.414862 3.21686
0.091687 0.449541 3.19144
0.243024 0.168422 3.14412
-0.211748 0.176236 3.13314
0.135078 0.192069 3.12246
-0.180282 0.204697 3.13733
0.204516 0.289757 3.21445
0.134102 0.291652 3.21392
-0.192348 0.360957 3.12697
-0.248596 0.502728 3.16904
0.309158 0.332739 3.23216
0.213285 0.330149 3.2066
0.0761751 0.177232 3.13506
0.341059 0.213718 3.20011
0.170986 0.195556 3.15121
-0.204525 0.342587 3.13439
0.214906 0.39214 3.21151
-0.187161 0.211032 3.14844
0.235215 0.190707 3.14969
0.225323 0.381861 3.21784
-0.212482 0.181477 3.13078
-0.238155 0.209315 3.12286
0.153174 0.390349 3.20306
0.0752326 0.314297 3.53707
0.23285 0.194085 3.14593
0.241395 0.196362 3.15118
-0.274914 0.396387 3.13007
-0.190277 0.178185 3.15687
0.115522 0.181313 3.13038
0.254808 0.192524 3.14675
-0.0327877 0.215585 3.16223
0.136572 0.195393 3.12724
0.212283 0.210257 3.15361
0.0543176 0.317842 3.21474
-0.173083 0.326364 3.20815
-0.154843 0.421484 3.20937
0.0632543 0.428385 3.20849
-0.0961285 0.43239 3.19066
-0.077239 0.44302 3.1868
-0.146174 0.447985 3.18848
-0.189977 0.174138 3.15242
-0.174429 0.307096 3.22048
0.116844 0.360628 3.20055
-0.257588 0.495962 3.17203
-0.210401 0.155879 3.31423
-0.177973 0.489442 3.17951
-0.255333 0.125776 3.15694
-0.0315657 0.192629 3.14686
0.123169 0.345073 3.20119
0.104339 0.415494 3.19448
-0.271815 0.412566 3.12411
-0.176286 0.463299 3.17962
0.308199 0.127221 3.20446
0.34287 0.147717 3.21113
0.244398 0.168062 3.15896
0.213225 0.387171 3.20823
0.0973935 0.415456 3.19438
0.108553 0.479025 3.18687
-0.268908 0.495393 3.16357
-0.213218 0.186902 3.14038
0.187072 0.394828 3.2055
0.0820441 0.426425 3.19867
-0.197754 0.161365 3.3054
0.24222 0.197137 3.15158
-0.101193 0.348711 3.22365
0.0624782 0.471371 3.21102
0.250016 0.345711 3.21232
0.162891 0.43407 3.20037
-0.259614 0.144366 3.38588
0.266046 0.1485 3.34767
0.237293 0.151086 3.34601
0.256387 0.146694 3.32027
-0.212187 0.176927 3.32717
-0.201151 0.179972 3.32911
0.318466 0.11767 3.21767
0.25618 0.149412 3.25593
0.14709 0.177052 3.29767
-0.187975 0.195477 3.30968
0.209446 0.166779 3.25619
0.337596 0.14401 3.22295
-0.105328 0.189548 3.29315
-0.0927361 0.188049 3.28928
-0.0431078 0.185712 3.28256
0.157793 0.170917 3.25587
0.301338 0.135176 3.19299
-0.251229 0.119175 3.1425
-0.240073 0.127308 3.14379
-0.248287 0.12953 3.14056
0.293757 0.151776 3.19241
0.149737 0.147229 3.17297
0.155046 0.142683 3.14871
0.186774 0.151125 3.15606
0.195689 0.150236 3.15406
-0.165871 0.165486 3.1719
-0.197336 0.150167 3.14051
0.0816158 0.157711 3.15725
-0.27755 0.151969 3.13373
0.101325 0.154609 3.13378
0.246848 0.155071 3.14061
0.214383 0.170694 3.15283
-0.189337 0.174919 3.15139
-0.112287 0.176923 3.14931
-0.210417 0.172421 3.12634
0.244042 0.173187 3.13587
0.0151469 0.180929 3.13626
0.198821 0.178725 3.13785
0.228262 0.185177 3.14733
-0.114177 0.186463 3.14157
-0.0150925 0.184836 3.13412
0.10519 0.175255 3.11992
-0.189571 0.183148 3.12597
0.0658819 0.187427 3.13628
0.2061 0.190726 3.14495
0.0929316 0.189654 3.13349
0.316834 0.216861 3.18132
-0.24403 0.190141 3.12115
-0.0337498 0.197983 3.13257
-0.0952384 0.203436 3.13496
0.111043 0.282809 3.20681
-0.164381 0.301451 3.23812
0.0706454 0.304378 3.23555
-0.13963 0.310697 3.23355
0.0636878 0.311147 3.23649
-0.224216 0.23838 3.10871
0.0694846 0.307289 3.22722
0.117137 0.311006 3.22611
0.21928 0.304642 3.21818
0.218249 0.308116 3.21815
-0.215266 0.245837 3.10128
0.0516014 0.316416 3.22217
-0.208893 0.254641 3.1117
-0.131832 0.320135 3.22188
-0.0927011 0.321386 3.21729
0.0915562 0.317622 3.21089
-0.266851 0.252609 3.08727
-0.0821718 0.333396 3.22081
0.0860401 0.329565 3.21323
0.298526 0.34113 3.23157
-0.096398 0.352623 3.22417
-0.051476 0.35795 3.23283
0.123267 0.345218 3.20952
-0.212205 0.333309 3.17652
-0.197782 0.332963 3.1765
-0.187537 0.342871 3.17019
-0.176394 0.395286 3.21242
0.166075 0.389051 3.20315
0.080237 0.421895 3.23311
0.0912821 0.418886 3.22173
-0.15613 0.427806 3.21957
-0.191096 0.370287 3.1192
0.050265 0.429362 3.2131
-0.0800407 0.428894 3.2109
-0.0925331 0.434479 3.21423
0.0466204 0.435675 3.21543
-0.1706 0.434401 3.20608
-0.100596 0.436364 3.2101
-0.0872803 0.434634 3.20444
0.0571529 0.43578 3.2091
-0.083979 0.43292 3.19698
-0.0978342 0.43567 3.1987
-0.082506 0.44199 3.1949
-0.0869962 0.444696 3.19646
-0.0150371 0.448042 3.20018
0.0721385 0.469339 3.20287
-0.0562229 0.474138 3.20283
-0.269747 0.499147 3.16599
-0.199881 0.490509 3.15785
-0.26019 0.145418 3.39423
0.245592 0.151 3.33716
0.333143 0.104529 3.23362
0.3175 0.118179 3.22277
0.138139 0.179251 3.29735
0.150946 0.178127 3.27446
-0.175179 0.167057 3.18338
-0.229384 0.1575 3.13025
0.0396992 0.166328 3.14694
0.241415 0.167988 3.15009
0.164531 0.162415 3.11707
0.195513 0.168617 3.13567
0.027618 0.177607 3.13175
0.218451 0.183223 3.14765
0.248717 0.178512 3.1361
0.0420847 0.184113 3.13328
-0.101453 0.190319 3.13242
-0.191932 0.197221 3.12052
-0.204922 0.198916 3.12051
0.0565187 0.307712 3.24784
-0.144769 0.31017 3.22919
-0.175036 0.311581 3.22806
-0.0140747 0.351827 3.24135
-0.104567 0.356039 3.23037
-0.0287174 0.356211 3.23136
0.242073 0.35718 3.21305
0.236468 0.360467 3.2084
-0.217193 0.339201 3.13676
0.162038 0.384372 3.20287
0.0658159 0.426023 3.2231
-0.0986781 0.430554 3.22149
-0.0890294 0.433492 3.2155
-0.10172 0.431548 3.20607
-0.0494976 0.432526 3.20111
0.0462709 0.435681 3.20814
0.0682485 0.438792 3.21324
0.050337 0.438026 3.21079
-0.146457 0.447356 3.18524
-0.143498 0.44772 3.18249
-0.205738 0.473415 3.16948
-0.233082 0.497643 3.16473
-0.269982 0.0906973 3.15261
0.313287 0.124867 3.22475
0.242073 0.15869 3.29769
0.309505 0.124587 3.20191
0.134913 0.186019 3.29774
-0.137126 0.190014 3.29724
0.0175497 0.187294 3.28787
0.202514 0.169361 3.25997
-0.277073 0.121836 3.14656
-0.192652 0.169532 3.22275
0.152665 0.151166 3.14642
0.0894211 0.171135 3.13142
0.209759 0.181465 3.1484
0.280421 0.180774 3.1493
0.103335 0.174141 3.11623
0.171103 0.191186 3.14351
-0.196574 0.18614 3.12538
-0.0263729 0.305482 3.2496
-0.114509 0.305363 3.24052
-0.13105 0.307776 3.23538
-0.17223 0.315935 3.22739
-0.209561 0.245642 3.09858
-0.155261 0.316405 3.21761
0.0669178 0.319904 3.22716
0.0721941 0.324565 3.22737
0.0466228 0.328777 3.21618
0.0724532 0.342307 3.23052
0.233378 0.356463 3.21994
0.167748 0.390932 3.20957
-0.0985561 0.427974 3.22055
-0.147732 0.427377 3.20427
0.0883091 0.427028 3.20113
-0.219005 0.393215 3.13351
-0.0223135 0.435347 3.20467
0.0666135 0.436136 3.20254
-0.18299 0.420148 3.1648
0.162453 0.441243 3.203
-0.240915 0.40093 3.11406
-0.176762 0.496487 3.20302
-0.201036 0.495145 3.1687
0.224862 0.151695 3.3116
-0.273685 0.102258 3.19143
-0.253032 0.105171 3.14373
0.0680861 0.18597 3.2931
-0.0191033 0.187294 3.28729
0.141121 0.195682 3.30686
-0.252978 0.118778 3.14394
0.140797 0.179777 3.26099
-0.245607 0.121627 3.13895
-0.250883 0.130417 3.13983
-0.191831 0.158343 3.19083
0.169086 0.14611 3.15817
0.0999934 0.15866 3.14809
0.224779 0.167875 3.15721
0.242437 0.162518 3.14777
-0.202079 0.180923 3.12603
0.248701 0.181244 3.13341
0.207771 0.190552 3.14401
0.0427817 0.307517 3.24164
0.0977226 0.29408 3.22012
-0.010061 0.309079 3.23341
0.197494 0.298072 3.21978
-0.216275 0.237429 3.10621
0.0701817 0.313194 3.227
0.0955491 0.304681 3.20581
-0.211326 0.247797 3.0998
0.0466038 0.321036 3.22485
-0.101525 0.348323 3.22301
-0.0699842 0.356541 3.23802
-0.105634 0.35447 3.22451
0.124306 0.34825 3.20838
0.108376 0.358865 3.20561
0.22995 0.363738 3.20574
0.223549 0.390588 3.21405
0.179594 0.390897 3.20959
-0.185305 0.353822 3.12576
-0.169005 0.426774 3.23008
-0.0141357 0.430404 3.20673
0.119722 0.438278 3.1962
-0.039563 0.44686 3.19374
0.115696 0.448375 3.1971
-0.0534355 0.454511 3.19018
0.272152 0.132164 3.3288
0.237855 0.152009 3.34114
-0.202449 0.179735 3.33229
-0.186637 0.187454 3.33351
-0.204934 0.182461 3.31745
-0.0992563 0.187394 3.2934
-0.244624 0.12256 3.14203
-0.182508 0.171268 3.19989
0.226152 0.162246 3.15394
-0.192701 0.166997 3.14802
0.220527 0.179809 3.14958
-0.035438 0.182691 3.14117
0.253026 0.183683 3.1449
0.3262 0.223624 3.21105
0.110267 0.187198 3.11451
-0.195188 0.199162 3.12284
0.104475 0.19423 3.11719
0.0409449 0.30483 3.24103
0.0902492 0.3048 3.22144
0.11855 0.30685 3.22249
-0.268271 0.248313 3.10329
0.0751292 0.345828 3.23922
0.247835 0.340474 3.21046
-0.170457 0.36073 3.22494
0.118372 0.366578 3.20959
0.223865 0.377641 3.21106
0.212627 0.388436 3.20985
0.225022 0.389455 3.21222
-0.098108 0.425987 3.21956
-0.0761702 0.431744 3.2246
-0.0237722 0.429702 3.22098
0.0815132 0.421705 3.19073
0.123783 0.438691 3.20209
-0.155729 0.453637 3.20256
0.0671493 0.452678 3.20466
0.0710662 0.486205 3.21521
-0.17997 0.493356 3.1885
-0.270571 0.501258 3.17527
-0.241689 0.158826 3.37423
0.235728 0.151209 3.34225
-0.191044 0.187015 3.33004
0.313008 0.125426 3.21628
-0.249147 0.111086 3.1713
0.302642 0.134984 3.21741
0.0138067 0.190682 3.28213
0.297537 0.139408 3.17347
0.159548 0.153514 3.13581
0.0814661 0.171108 3.12629
-0.156309 0.301886 3.23919
-0.0300542 0.306918 3.24828
0.0474203 0.310758 3.23359
-0.0865833 0.354947 3.23399
-0.212084 0.3346 3.17336
0.101837 0.421847 3.19794
-0.100577 0.437403 3.20606
0.0564488 0.44724 3.20286
-0.0749537 0.477459 3.21039
-0.269989 0.139438 3.37119
-0.227892 0.16529 3.36188
-0.214665 0.17311 3.3454
0.255247 0.155187 3.30254
0.198104 0.162878 3.29551
0.298023 0.132085 3.21269
-0.16982 0.192022 3.27763
0.0133253 0.196891 3.26893
0.301082 0.139463 3.17217
-0.203642 0.153391 3.1352
0.0917363 0.153077 3.1393
0.223872 0.155083 3.14635
0.116574 0.1788 3.1236
0.240799 0.190447 3.14299
0.108333 0.189971 3.12644
0.250887 0.19988 3.1336
-0.170838 0.313217 3.21358
-0.166561 0.432949 3.216
-0.0781395 0.437229 3.20625
-0.164853 0.491078 3.19888
-0.197974 0.177505 3.33038
-0.19241 0.187601 3.32632
0.214422 0.169779 3.29962
-0.17504 0.183836 3.30759
-0.254259 0.104052 3.13629
-0.245311 0.120787 3.1456
-0.180417 0.176547 3.14291
-0.205572 0.183717 3.13417
0.051647 0.183568 3.13528
0.0818255 0.296433 3.26032
0.10671 0.350249 3.21584
0.12263 0.352316 3.21108
-0.195098 0.342421 3.17029
0.229666 0.365739 3.20385
0.194226 0.405272 3.22645
-0.194498 0.360206 3.13939
-0.167622 0.432713 3.22413
0.129679 0.432575 3.19612
-0.00489351 0.446443 3.19837
-0.0598737 0.45606 3.2022
0.0603413 0.477768 3.22711
-0.0430257 0.482478 3.22276
0.115817 0.200154 3.1197
0.199905 0.294244 3.21542
-0.174346 0.306725 3.22326
0.187832 0.360691 3.20306
0.171487 0.185517 3.14399
0.336595 0.133928 3.20933
-0.269783 0.400387 3.12717
-0.24113 0.178306 3.13146
0.119504 0.178302 3.11891
-0.164721 0.440504 3.18622
0.095396 0.192968 3.12604
0.248406 0.16953 3.14759
-0.190629 0.189035 3.13371
0.117417 0.204155 3.12472
0.0689359 0.353837 3.22968
0.234427 0.347822 3.21609
-0.194718 0.336308 3.17355
-0.0823762 0.437974 3.18995
0.256152 0.177661 3.14208
-0.209791 0.189392 3.13313
-0.241882 0.184851 3.13978
0.0984469 0.41487 3.19145
-0.206551 0.18744 3.13177
0.195687 0.207163 3.14494
-0.181355 0.179275 3.14678
0.106426 0.340208 3.20994
0.262605 0.144034 3.33986
0.252125 0.160015 3.33619
0.214684 0.172991 3.29477
0.248178 0.165466 3.14237
0.0495685 0.172773 3.13954
0.0638685 0.17864 3.13142
0.244786 0.198139 3.13804
0.30844 0.300679 3.23208
0.301988 0.329276 3.22923
0.0770154 0.360889 3.2342
0.233399 0.35095 3.20579
0.216547 0.39201 3.21012
0.0695678 0.432652 3.19829
0.124423 0.441973 3.1958
-0.196838 0.485127 3.16944
0.324179 0.106084 3.26947
-0.244776 0.12368 3.14175
0.227802 0.154398 3.16518
0.0608032 0.166371 3.15282
0.10448 0.169496 3.13209
0.271128 0.131012 3.33578
0.310266 0.121467 3.2194
-0.249833 0.128021 3.13734
0.32887 0.187341 3.2093
0.115198 0.156435 3.13583
0.255932 0.182781 3.14602
0.233304 0.190663 3.14561
0.24414 0.337084 3.20721
0.24095 0.355817 3.2129
-0.17652 0.494947 3.18588
-0.191486 0.497928 3.18126
0.298095 0.124925 3.22729
0.340447 0.148018 3.21325
-0.188778 0.178287 3.15453
0.18491 0.193524 3.13549
-0.257853 0.497821 3.16559
0.119546 0.173724 3.11312
0.231877 0.365166 3.2072
0.107122 0.483856 3.18793
0.242591 0.145459 3.1484
-0.200999 0.151968 3.13752
0.171687 0.346845 3.20771
0.23913 0.35637 3.20836
-0.170829 0.490346 3.1952
0.257114 0.168917 3.13232
0.221806 0.388328 3.21371
-0.195157 0.340898 3.14559
-0.198091 0.145117 3.14397
0.106149 0.172502 3.12466
-0.10237 0.431583 3.21623
-0.252567 0.160606 3.38435
-0.269229 0.131116 3.3015
0.238712 0.14469 3.32457
0.2344 0.145101 3.32523
0.325938 0.108096 3.27541
0.326486 0.10254 3.25821
0.242523 0.148195 3.31192
0.332057 0.105273 3.25401
0.245055 0.157247 3.30424
-0.20092 0.18624 3.33451
0.214403 0.170683 3.31521
0.334475 0.111124 3.23379
0.212732 0.175669 3.31151
0.216138 0.166243 3.2782
0.204462 0.175638 3.27964
-0.00805531 0.18991 3.2908
-0.000941231 0.187938 3.28724
0.0910578 0.177543 3.27307
-0.116375 0.192787 3.28911
-0.0322274 0.192186 3.2876
-0.0575822 0.187298 3.27783
0.0644643 0.185379 3.27753
-0.118482 0.196216 3.28062
0.283674 0.15153 3.228
0.342425 0.147362 3.22175
-0.196202 0.136942 3.17649
-0.177026 0.194392 3.27035
-0.0940167 0.201559 3.27523
-0.063843 0.196039 3.27021
-0.251601 0.105737 3.14806
-0.216606 0.145494 3.20154
-0.100447 0.19852 3.26844
0.00599833 0.194911 3.25963
0.15648 0.173231 3.23438
-0.0958984 0.202323 3.26614
0.152575 0.161145 3.21107
0.216474 0.156611 3.20228
0.227405 0.138536 3.16939
-0.217957 0.125732 3.14393
0.26282 0.141974 3.16441
0.307548 0.142343 3.16933
0.236744 0.138785 3.16065
0.233466 0.141818 3.15779
0.147295 0.160792 3.17974
0.225009 0.128007 3.13159
0.168556 0.151465 3.16354
0.110962 0.153933 3.16274
-0.101307 0.169834 3.17664
0.168979 0.137623 3.13633
0.211267 0.150026 3.15367
0.0826818 0.154368 3.15057
0.103591 0.150549 3.14199
0.0596084 0.169554 3.15165
0.0077191 0.171062 3.15034
-0.0283262 0.172376 3.14929
0.248722 0.159665 3.13998
-0.114563 0.173501 3.14804
0.0836043 0.172385 3.12845
0.103165 0.169241 3.1263
0.25193 0.183803 3.14143
0.21992 0.189694 3.14186
-0.210233 0.182248 3.12541
0.219064 0.28659 3.22508
-0.166122 0.304545 3.23697
0.0562494 0.310112 3.23169
0.0510155 0.312481 3.22985
-0.173932 0.314074 3.22766
0.301779 0.327645 3.22723
-0.109498 0.330786 3.21583
0.308357 0.336659 3.22867
-0.118076 0.33176 3.21467
0.28235 0.335888 3.21889
-0.103995 0.353157 3.2245
-0.0919988 0.35313 3.22455
0.258278 0.334896 3.20859
-0.208787 0.25479 3.10255
-0.172119 0.355814 3.22263
-0.236575 0.256925 3.10019
-0.192863 0.325196 3.18053
0.233048 0.350049 3.20471
0.224153 0.38128 3.20675
0.219438 0.383841 3.20516
0.103597 0.425026 3.25021
0.216518 0.39301 3.2113
-0.219558 0.338362 3.12969
0.200468 0.401228 3.20219
-0.0976933 0.429024 3.21966
-0.114195 0.425959 3.2117
0.0472011 0.427263 3.21718
0.0810705 0.415849 3.20434
-0.0217387 0.426535 3.21304
0.0718112 0.425056 3.21031
-0.0859783 0.426894 3.20809
-0.151594 0.429498 3.20787
0.108949 0.413905 3.19318
-0.162769 0.434178 3.20632
0.0400071 0.432298 3.20446
-0.15581 0.438598 3.20645
-0.0965451 0.434155 3.20013
-0.162891 0.429599 3.19121
0.0707423 0.424567 3.18439
-0.219044 0.371974 3.12057
0.162308 0.438355 3.1961
-0.0238978 0.442165 3.19655
0.116984 0.436637 3.18938
0.124475 0.439077 3.19315
0.0606689 0.445695 3.19468
-0.142539 0.449989 3.19172
0.067201 0.475368 3.20522
-0.176061 0.471527 3.18869
0.102274 0.482356 3.18258
-0.196446 0.483308 3.16745
-0.264541 0.146041 3.39903
-0.28085 0.158998 3.41429
-0.266589 0.161207 3.38882
-0.244106 0.165903 3.38937
0.291512 0.124612 3.32971
0.259681 0.144381 3.34439
0.233299 0.152706 3.33928
0.223437 0.162409 3.32237
0.328859 0.101295 3.23486
-0.200637 0.185131 3.33502
-0.280834 0.0904756 3.19297
0.0938271 0.175488 3.29651
0.211849 0.173127 3.29735
0.339792 0.141852 3.2342
-0.103873 0.192905 3.28931
-0.0711348 0.190571 3.28201
-0.102933 0.191199 3.27987
0.0669123 0.189965 3.2773
0.335088 0.141752 3.21703
-0.0718913 0.193409 3.27404
-0.0542882 0.200132 3.2654
0.214312 0.1623 3.22119
0.306595 0.139543 3.18211
0.151756 0.171445 3.2247
0.303481 0.136617 3.17538
0.242688 0.135607 3.16692
-0.244891 0.126471 3.14541
0.250391 0.144445 3.15077
0.0627379 0.176787 3.17353
0.282901 0.204093 3.16975
0.251421 0.180922 3.13423
0.314672 0.214458 3.17489
-0.236741 0.201169 3.11492
0.0988121 0.300658 3.21673
0.212454 0.302418 3.2188
0.307004 0.339044 3.23926
-0.0156657 0.334653 3.2259
-0.215082 0.238832 3.105
-0.134381 0.337447 3.22568
-0.117912 0.356498 3.24336
-0.274232 0.252476 3.1049
-0.183487 0.338266 3.16277
0.117077 0.40597 3.23305
0.115484 0.409367 3.22867
0.214038 0.386698 3.20291
0.178417 0.390041 3.19551
0.197487 0.395248 3.19612
0.113638 0.410003 3.19884
-0.0807336 0.428297 3.21488
-0.00720267 0.427825 3.21528
-0.173482 0.427078 3.20909
-0.0965406 0.427194 3.20949
-0.0909873 0.431951 3.20786
-0.0134863 0.43225 3.20926
-0.0640115 0.430062 3.19775
0.068457 0.434592 3.20467
-0.169622 0.439416 3.1953
0.118456 0.432466 3.18956
-0.155449 0.441788 3.18996
0.132416 0.440365 3.19231
0.0651549 0.47853 3.21582
-0.169717 0.482929 3.19355
0.0939258 0.482197 3.18529
-0.181324 0.4752 3.17051
0.106758 0.487831 3.1924
0.237729 0.151261 3.34851
-0.271202 0.119639 3.27727
0.244049 0.151173 3.33743
0.222123 0.163605 3.3246
-0.198598 0.182738 3.33358
0.33539 0.107988 3.23444
0.197808 0.176756 3.30547
0.217436 0.178447 3.30474
0.152667 0.177892 3.28769
0.149669 0.180145 3.27278
-0.227926 0.139953 3.20106
0.353731 0.182802 3.23588
0.229601 0.141708 3.17771
-0.246149 0.124181 3.14296
-0.278242 0.126541 3.13311
0.236312 0.140328 3.16799
0.211738 0.149403 3.17514
-0.249669 0.130814 3.14099
-0.0599459 0.17959 3.20465
0.232817 0.145525 3.16395
0.253551 0.135948 3.152
0.20459 0.147726 3.1593
0.206677 0.162237 3.15153
0.0996013 0.157054 3.13845
0.245345 0.175505 3.14312
0.227801 0.188681 3.15417
0.233416 0.192451 3.14787
-0.201981 0.17958 3.12204
0.0860573 0.301638 3.22435
-0.112843 0.318531 3.22269
0.0628888 0.32075 3.224
-0.0521657 0.330696 3.2246
0.0728126 0.353299 3.24054
-0.116958 0.350811 3.22529
0.25907 0.340988 3.21948
0.216015 0.335422 3.20827
0.0976054 0.35759 3.22618
0.239897 0.351535 3.20775
-0.211902 0.332089 3.172
0.228501 0.361751 3.20376
0.0914212 0.418425 3.24849
0.11506 0.408643 3.2373
0.159961 0.383241 3.20124
0.19031 0.399886 3.20433
-0.170959 0.424417 3.22518
0.116968 0.401694 3.19583
-0.171259 0.437078 3.21286
-0.0214273 0.435239 3.20653
-0.18981 0.495635 3.17996
0.237627 0.152964 3.34643
-0.211507 0.176981 3.35974
0.226555 0.157494 3.33023
0.221346 0.161229 3.32203
0.328193 0.111805 3.25895
-0.269811 0.112203 3.2311
0.251031 0.160019 3.29507
0.105618 0.177116 3.30124
0.114744 0.184579 3.30724
-0.240305 0.139453 3.20938
-0.2668 0.101003 3.15388
0.338866 0.137022 3.19857
0.30306 0.154515 3.23122
0.142197 0.179969 3.24626
-0.0673997 0.198946 3.26339
0.156991 0.159748 3.19924
-0.189662 0.158316 3.17682
0.296975 0.141914 3.1635
0.146625 0.159822 3.16258
0.248457 0.161135 3.15524
0.253033 0.139799 3.12877
0.223245 0.157193 3.14471
0.106393 0.164945 3.12451
0.0648837 0.174985 3.13237
0.265682 0.180796 3.13315
0.241018 0.184803 3.12984
-0.12486 0.321858 3.22273
-0.112752 0.312692 3.21153
-0.117784 0.352226 3.22366
0.238429 0.351957 3.20017
-0.183045 0.341186 3.15636
0.0636635 0.426957 3.22663
0.0638931 0.428791 3.22076
0.111027 0.411612 3.20135
0.0610659 0.436459 3.2141
-0.271342 0.397634 3.11968
0.109423 0.463 3.19213
0.081668 0.486919 3.20689
0.0877394 0.482441 3.19714
-0.179032 0.486567 3.1752
-0.248782 0.495905 3.16007
-0.240789 0.162015 3.37933
-0.227776 0.173053 3.36232
-0.276254 0.109296 3.26289
-0.212685 0.177971 3.35843
0.260198 0.147369 3.3193
0.251901 0.150372 3.31139
0.314965 0.120709 3.23119
-0.256025 0.113471 3.19768
-0.100352 0.188953 3.29434
-0.270569 0.0914347 3.15811
0.0731873 0.19008 3.29285
0.142932 0.186631 3.29003
-0.198239 0.21318 3.31138
-0.22161 0.117675 3.13874
-0.223695 0.130979 3.14758
0.247586 0.132143 3.15116
0.143781 0.152343 3.16551
0.248197 0.14493 3.14865
-0.209456 0.1831 3.1291
-0.200454 0.181187 3.12668
-0.0926599 0.351494 3.22853
0.245044 0.337401 3.20693
0.231116 0.364525 3.20644
0.168955 0.390194 3.20742
0.190921 0.393095 3.20039
0.200325 0.395737 3.19869
-0.168778 0.435653 3.21167
-0.105826 0.434463 3.2115
-0.152796 0.436554 3.20336
0.120102 0.423242 3.18696
0.0611806 0.448664 3.2051
-0.271 0.147229 3.40204
0.237504 0.152047 3.33895
0.218914 0.166911 3.30704
0.320786 0.118744 3.24383
0.200012 0.174619 3.31072
0.317298 0.113807 3.22485
