-0.409293 -0.426147 4.10907
0.494538 -0.402752 4.58301
0.471889 -0.34995 4.52459
0.52812 -0.343261 4.55687
-0.363496 -0.318562 4.35835
0.377207 -0.303732 4.40827
0.253589 -0.289468 4.43596
0.129941 -0.280987 4.43464
0.537212 -0.281713 4.54896
0.379539 -0.269953 4.45583
0.410558 -0.269938 4.38931
0.128006 -0.254972 4.38199
0.321403 -0.261566 4.43966
0.353735 -0.262485 4.47028
0.375842 -0.263305 4.46953
0.547512 -0.263744 4.57809
0.0953464 -0.245758 4.40981
0.374419 -0.25607 4.45973
0.339856 -0.251237 4.47623
-0.297052 -0.24676 4.44314
0.272156 -0.242344 4.47719
0.539636 -0.251196 4.56601
0.311522 -0.239499 4.40426
0.343521 -0.24055 4.44492
-0.288653 -0.238263 4.44003
0.173155 -0.235494 4.4283
0.299766 -0.236806 4.4132
0.328941 -0.240602 4.48282
0.540418 -0.244233 4.56069
0.285307 -0.231941 4.41362
-0.313767 -0.22972 4.36846
0.534616 -0.23841 4.5575
0.331503 -0.226983 4.44232
-0.342596 -0.22719 4.43967
0.317903 -0.226348 4.47776
0.27421 -0.218653 4.41163
0.261903 -0.216048 4.41446
0.378351 -0.223663 4.46157
0.255974 -0.209082 4.445
0.348974 -0.208069 4.4436
0.354666 -0.206486 4.41562
0.526179 -0.208397 4.56272
-0.226743 -0.186924 4.63491
0.140275 -0.183354 4.67157
0.322954 -0.182402 4.6173
-0.254206 -0.172711 4.52595
0.327276 -0.171387 4.61735
0.240889 -0.151118 4.60089
0.423955 -0.156446 4.62025
-0.305997 -0.146856 4.37482
0.29579 -0.139102 4.63091
0.313673 -0.135303 4.60069
0.247921 -0.129444 4.59879
0.265455 -0.129782 4.59749
0.320702 -0.128802 4.603
-0.296801 -0.125729 4.37569
-0.380742 -0.12347 4.36645
-0.303255 -0.12255 4.44005
-0.404352 -0.117514 4.43232
-0.249558 -0.107481 4.65695
-0.325047 -0.113111 4.39432
-0.249476 -0.103098 4.65675
-0.402548 -0.10824 4.45265
-0.359957 -0.111154 4.34518
0.120489 -0.0937175 4.0598
0.292024 -0.10249 4.5941
0.478749 -0.105289 4.64155
0.20809 -0.0942708 4.60129
0.111396 -0.0900907 4.63719
0.305839 -0.0934083 4.6104
0.203401 -0.0882095 4.59896
0.140708 -0.0828326 4.60915
0.196138 -0.0809261 4.5933
0.212503 -0.0814531 4.61138
-0.127065 -0.0747081 4.61103
0.174613 -0.0750552 4.59866
0.326387 -0.0769776 4.59854
-0.247356 -0.0714988 4.62593
-0.254651 -0.0705775 4.59682
0.110874 -0.0684299 4.60756
0.321816 -0.0697111 4.59705
-0.20958 -0.062548 4.62636
-0.00850484 -0.0623428 4.62117
-0.28899 -0.0647058 4.53859
-0.258837 -0.0639352 4.55111
-0.227623 -0.0607698 4.62079
-0.192976 -0.0614964 4.59806
0.329182 -0.0624509 4.63768
-0.321126 -0.0643732 4.45398
-0.324492 -0.0601792 4.45483
0.164244 -0.0531764 4.60846
0.319881 -0.0513424 4.60491
0.463634 -0.0504863 4.64854
-0.242228 -0.0461062 4.61244
-0.0703533 -0.0462829 4.60428
0.16105 -0.0465254 4.59386
-0.100604 -0.0441269 4.59972
-0.261271 -0.0412192 4.553
-0.133343 -0.0386489 4.62686
-0.242482 -0.0369241 4.62401
-0.150714 -0.0378987 4.59901
0.114765 -0.033815 4.60573
-0.254803 -0.0333006 4.56621
0.306275 -0.0305749 4.61196
-0.0164343 -0.0244082 4.65789
0.103616 -0.0260434 4.63221
0.266194 -0.0281199 4.59901
-0.290776 -0.0284663 4.5365
-0.161273 -0.0238036 4.62512
-0.149239 -0.0217681 4.60992
0.105277 -0.0208302 4.65187
0.110682 -0.0203667 4.66081
0.112885 -0.0203468 4.66309
0.320775 -0.0240411 4.59861
-0.00897064 -0.0180419 4.65655
-0.264095 -0.0104939 4.59389
0.35244 -0.00903793 4.6123
-0.260165 -0.00867358 4.50841
-0.315238 -0.00928572 4.48932
0.173411 0.00548058 4.59797
0.360976 0.00758967 4.61768
-0.388105 0.000851506 4.44667
0.357551 0.0141501 4.67189
-0.269704 0.0130632 4.5106
0.348254 0.0209757 4.67464
0.337837 0.0412802 4.62891
0.243733 0.0485483 4.60456
0.339022 0.0495765 4.6223
-0.2451 0.0503311 4.61819
-0.249151 0.0613805 4.60718
0.29545 0.0643934 4.6323
0.17712 0.0677064 4.62712
-0.314602 0.0656768 4.47212
-0.399413 0.0801828 4.4955
-0.386987 0.0781131 4.45022
-0.392412 0.0857974 4.4947
-0.229558 0.0979625 4.63467
-0.0235676 0.0973338 4.65363
-0.22498 0.10053 4.64234
-0.380854 0.102946 4.57982
-0.0295512 0.104503 4.61321
0.085344 0.10435 4.61288
0.0969847 0.10571 4.65042
-0.107736 0.110915 4.65384
0.134807 0.107178 4.60905
-0.0142767 0.110505 4.61147
-0.0825692 0.11282 4.62645
-0.0570531 0.112184 4.61106
0.0792689 0.113173 4.62121
0.0959355 0.114235 4.64812
-0.2207 0.115543 4.60701
0.135177 0.116607 4.62176
0.248208 0.122842 4.68539
0.186289 0.122334 4.60801
0.244146 0.124377 4.61503
-0.22288 0.132367 4.684
0.0139073 0.128674 4.6014
-0.190393 0.131233 4.59049
-0.215788 0.134424 4.59352
0.00400843 0.133014 4.61598
-0.00976473 0.13723 4.61385
-0.393122 0.142763 4.57453
-0.0692454 0.14811 4.61058
0.111911 0.158222 4.72655
-0.136519 0.15275 4.60524
0.109815 0.156578 4.63936
-0.204244 0.156254 4.60658
-0.0880321 0.161616 4.63852
-0.0762042 0.163642 4.63773
-0.377885 0.168045 4.55483
0.138338 0.170451 4.63936
0.110694 0.181653 4.66806
-0.374309 0.182519 4.55142
0.155654 0.188186 4.60475
-0.254392 0.198918 4.62339
-0.410851 -0.427343 4.11818
-0.44484 -0.356319 3.56853
0.528166 -0.365792 4.5736
0.529229 -0.325507 4.56737
0.452941 -0.316369 4.44233
0.436793 -0.310305 4.44367
0.377505 -0.304715 4.41966
0.375167 -0.299168 4.40184
0.234663 -0.290491 4.43799
0.25426 -0.288563 4.42478
0.293963 -0.279715 4.43197
0.377362 -0.275497 4.41652
0.537924 -0.282206 4.55498
0.366373 -0.270388 4.47995
0.129266 -0.258785 4.4588
0.233612 -0.259088 4.41657
0.545614 -0.263655 4.57303
0.294219 -0.243083 4.41264
0.538936 -0.252051 4.5617
0.271734 -0.242161 4.47759
0.46574 -0.24747 4.4282
-0.305494 -0.240015 4.44841
0.172286 -0.234159 4.35371
0.302618 -0.23877 4.46308
0.355898 -0.238621 4.46971
-0.317709 -0.232547 4.43493
0.30666 -0.23059 4.41378
0.285742 -0.22462 4.41402
0.303342 -0.225345 4.40709
0.333126 -0.228034 4.48098
0.371479 -0.22274 4.41475
0.265796 -0.218306 4.47672
0.366046 -0.214632 4.42194
0.254358 -0.207939 4.42825
0.223133 -0.205446 4.34946
0.111333 -0.193545 4.66292
0.484648 -0.201351 4.54863
-0.226223 -0.187292 4.64229
0.140275 -0.183354 4.67157
0.381875 -0.180069 4.63248
0.472634 -0.183955 4.592
-0.326848 -0.149746 4.42672
0.320033 -0.143195 4.60459
-0.309948 -0.147756 4.43113
0.246683 -0.129034 4.59792
0.256632 -0.12994 4.59456
-0.277318 -0.129713 4.38559
-0.291933 -0.124583 4.39549
0.14323 -0.109822 4.66457
-0.250093 -0.104946 4.66748
-0.398172 -0.114701 4.37348
0.291846 -0.103805 4.59591
-0.221696 -0.0956028 4.63709
-0.212619 -0.0937228 4.67474
-0.240369 -0.0914958 4.62899
0.146525 -0.0882325 4.61528
0.296745 -0.0904543 4.60241
-0.197392 -0.08441 4.63915
-0.191428 -0.0843556 4.63849
-0.397736 -0.0891584 4.44213
0.196045 -0.0810399 4.61658
0.211246 -0.0812881 4.60347
0.326467 -0.0775665 4.59744
-0.244042 -0.0704507 4.67534
0.0973438 -0.0699357 4.62303
-0.254564 -0.0707723 4.6031
0.320118 -0.0694045 4.6009
-0.260036 -0.0645119 4.56781
-0.208003 -0.0621543 4.6161
-0.183356 -0.0618976 4.61778
-0.157699 -0.0623388 4.60014
-0.1204 -0.0608913 4.63454
-0.288626 -0.0641573 4.5459
-0.227569 -0.0602091 4.60488
-0.321939 -0.0645702 4.45894
-0.3247 -0.0600073 4.44863
-0.241625 -0.0465484 4.59837
0.460132 -0.0499387 4.62223
0.129644 -0.0427109 4.59957
-0.143795 -0.0393186 4.60382
-0.237407 -0.0371462 4.59723
0.462878 -0.0312818 4.68111
0.304217 -0.0304974 4.60198
-0.306733 -0.0278615 4.54177
-0.150628 -0.0220638 4.64296
-0.246484 -0.0213343 4.61028
0.11027 -0.0204141 4.61457
0.319478 -0.0236392 4.59628
0.136805 -0.0123319 4.645
0.259383 -0.0144885 4.61512
0.151675 -0.0110117 4.62251
-0.246617 -0.000700484 4.65512
0.367625 -0.00262188 4.64991
0.137126 0.00161674 4.66508
-0.289655 -0.00506788 4.43676
0.184464 0.00400247 4.61912
-0.392868 0.00154799 4.49373
-0.385881 0.0142751 4.4577
0.25575 0.0334335 4.58569
0.267702 0.0397442 4.61114
0.345104 0.0450485 4.64824
0.247212 0.0447611 4.60866
-0.245843 0.0503343 4.61815
0.271687 0.0593848 4.62103
0.175766 0.0606789 4.61923
0.294591 0.0644034 4.62583
0.174705 0.069768 4.63811
0.294553 0.0763915 4.68514
-0.398799 0.0801333 4.49601
-0.392764 0.0858523 4.49236
-0.219973 0.0959677 4.6579
-0.207765 0.0962022 4.62816
-0.261082 0.0923273 4.56663
-0.225486 0.100542 4.6481
-0.0212079 0.0989838 4.65201
-0.220476 0.106009 4.62502
-0.23377 0.111906 4.62471
-0.0147726 0.110461 4.61029
-0.083103 0.112248 4.60334
0.0956694 0.112592 4.60308
-0.214761 0.115928 4.60243
-0.00642161 0.117692 4.62787
0.133885 0.116133 4.59624
0.24296 0.12432 4.62013
-0.238919 0.125751 4.59092
-0.22137 0.129292 4.60668
-0.121596 0.12593 4.6235
0.23974 0.131524 4.68479
-0.137963 0.130587 4.61488
0.111431 0.131048 4.63076
-0.125566 0.132819 4.60196
-0.116477 0.133604 4.62272
-0.00640572 0.133071 4.62607
0.00209863 0.13303 4.62545
-0.0677017 0.140955 4.62317
-0.0697574 0.148169 4.61601
-0.0878442 0.161817 4.65071
-0.0760955 0.163745 4.64382
0.110245 0.181613 4.66741
-0.282746 0.186836 4.59088
-0.239594 0.191144 4.64938
-0.254171 0.198637 4.61125
-0.369595 0.201278 4.56578
0.494889 -0.40352 4.5902
-0.4456 -0.356864 3.57289
0.486849 -0.36839 4.5228
0.52868 -0.366854 4.57093
0.530621 -0.354684 4.59444
0.525201 -0.342139 4.57227
-0.36405 -0.320078 4.37571
0.45337 -0.316991 4.44924
0.5313 -0.320873 4.54543
0.435831 -0.309668 4.43674
0.293692 -0.28405 4.46372
0.543663 -0.285154 4.59321
0.376091 -0.27779 4.45746
0.0618743 -0.261346 4.44893
0.0932938 -0.258713 4.41052
0.364008 -0.268023 4.42492
0.354132 -0.260686 4.46903
0.290532 -0.252341 4.40255
0.317796 -0.245356 4.48053
0.432082 -0.248485 4.47832
-0.347011 -0.240761 4.36987
0.172784 -0.23605 4.37918
0.377865 -0.240301 4.4078
0.354318 -0.238628 4.47528
0.533191 -0.235208 4.56649
0.260299 -0.220042 4.42079
0.27288 -0.22048 4.42086
0.249955 -0.210432 4.42318
0.226339 -0.208231 4.43868
0.356555 -0.207844 4.43569
-0.347771 -0.206155 4.44257
0.519955 -0.209019 4.54938
-0.2266 -0.186854 4.63386
0.475947 -0.186524 4.63556
-0.329749 -0.152764 4.43957
0.317282 -0.145315 4.59607
0.309782 -0.136862 4.6048
-0.283331 -0.132195 4.46357
0.319254 -0.126837 4.62932
-0.400461 -0.115618 4.39213
-0.323942 -0.111992 4.3688
0.289713 -0.105464 4.58575
0.127367 -0.098032 4.63828
0.311498 -0.10098 4.60489
0.31691 -0.101109 4.59127
-0.241216 -0.0946177 4.62962
-0.212117 -0.0937185 4.67543
0.476683 -0.10169 4.62678
-0.223437 -0.0909485 4.66662
0.240675 -0.084129 4.63327
-0.397736 -0.0891584 4.44213
-0.239318 -0.0796276 4.63916
0.193555 -0.0806605 4.60416
0.326194 -0.0810981 4.59211
-0.256142 -0.0746565 4.60966
-0.208427 -0.0619371 4.60829
-0.120212 -0.0606673 4.62765
0.0680126 -0.0583095 4.61813
0.326199 -0.061215 4.60064
-0.32445 -0.0602136 4.45607
0.129409 -0.043301 4.61928
0.47061 -0.045491 4.63288
-0.248725 -0.0449842 4.59
-0.235834 -0.0404877 4.59341
-0.167123 -0.0401448 4.59805
0.112676 -0.0354972 4.65158
-0.161481 -0.0238618 4.62728
-0.153057 -0.0226959 4.65059
0.377167 -0.0197092 4.69221
-0.121895 -0.0134293 4.65068
0.150759 -0.0105685 4.60172
-0.313556 -0.0100457 4.48336
0.136151 -0.00243149 4.62644
0.367625 -0.00262188 4.64991
-0.310003 -0.00524445 4.48705
0.173225 0.00838424 4.60054
0.358099 0.0141097 4.6635
-0.387309 0.0140466 4.47083
0.256804 0.0330233 4.60005
0.172841 0.0361991 4.61506
0.344492 0.0450276 4.64753
0.329442 0.0534663 4.68079
-0.313353 0.0427348 4.44908
0.173429 0.0613454 4.6218
0.291811 0.0741557 4.66087
0.273247 0.0783517 4.67732
-0.39638 0.0780785 4.49734
-0.223529 0.0985107 4.60728
-0.203058 0.112271 4.60754
-0.136006 0.112162 4.63173
-0.106002 0.110761 4.61732
0.169125 0.116223 4.64804
-0.00567793 0.117769 4.63565
-0.237169 0.127258 4.59142
-0.138392 0.130714 4.62888
-0.0139062 0.129538 4.61409
0.0906813 0.130284 4.6352
0.107641 0.129079 4.59347
-0.18722 0.133043 4.58771
0.00285183 0.132004 4.60194
-0.204161 0.137343 4.62079
-0.138045 0.153144 4.6341
-0.0938982 0.152657 4.63482
-0.0763418 0.163975 4.65805
0.106234 0.181417 4.62537
-0.244294 0.189186 4.65582
0.130527 0.193248 4.69763
-0.394006 0.199552 4.57783
-0.482407 -0.381823 3.86689
0.486733 -0.369208 4.53112
-0.365552 -0.320774 4.38178
0.24897 -0.295048 4.47818
0.233536 -0.290323 4.43647
0.379573 -0.277566 4.47108
0.365361 -0.269348 4.44127
0.066511 -0.252132 4.43111
0.378446 -0.265836 4.46057
0.350888 -0.260104 4.46464
0.545204 -0.264401 4.57566
-0.352012 -0.243881 4.44257
0.16945 -0.235919 4.38698
0.315968 -0.243102 4.4797
0.343604 -0.2438 4.48461
0.432032 -0.247146 4.47573
0.376846 -0.239684 4.39977
0.40209 -0.240646 4.41252
-0.279799 -0.230795 4.39693
0.257919 -0.226134 4.48557
0.530869 -0.233615 4.56049
0.265005 -0.222132 4.46881
0.273518 -0.220508 4.42099
0.373617 -0.224329 4.42147
0.366876 -0.221267 4.46683
0.140187 -0.209678 4.38907
0.249708 -0.211983 4.44657
0.292433 -0.210156 4.41083
0.356543 -0.208355 4.44366
0.522212 -0.209502 4.56115
-0.345908 -0.203028 4.43233
0.475545 -0.190312 4.64442
-0.271761 -0.172296 4.36846
-0.295124 -0.170547 4.43936
-0.328992 -0.153355 4.43414
0.307664 -0.135294 4.61185
-0.276303 -0.129076 4.37323
0.164358 -0.121424 4.60022
-0.40137 -0.127921 4.37169
-0.291808 -0.124828 4.40133
-0.381762 -0.123821 4.3729
0.163913 -0.11378 4.60738
0.156836 -0.106129 4.61076
-0.396287 -0.113799 4.35442
-0.323657 -0.111987 4.36922
-0.260862 -0.0998113 4.70035
0.290095 -0.105577 4.59684
0.474969 -0.103494 4.61748
0.10361 -0.0931991 4.64417
0.116619 -0.0931535 4.65098
0.149991 -0.0950774 4.6053
0.131277 -0.0839414 4.60125
0.239503 -0.083944 4.60132
0.176041 -0.0796231 4.63105
0.330574 -0.0828477 4.6062
-0.28885 -0.0647701 4.54095
-0.219985 -0.060959 4.61816
-0.194651 -0.0615842 4.59818
-0.155642 -0.0618156 4.59066
-0.120583 -0.0604047 4.61871
-0.321836 -0.0646992 4.46336
-0.20854 -0.057167 4.61823
-0.255371 -0.0485738 4.56711
-0.189499 -0.0422603 4.61782
0.129819 -0.0430639 4.61168
-0.235017 -0.0387718 4.61645
-0.162142 -0.039305 4.60014
-0.0304466 -0.0404085 4.5988
0.468158 -0.0367625 4.63273
0.326412 -0.0333818 4.6132
0.108822 -0.0226275 4.65053
0.142695 -0.0244621 4.61616
-0.0957376 -0.0153449 4.63712
-0.123583 -0.0100987 4.66708
0.135225 -0.0116055 4.65086
0.257431 -0.0145014 4.59677
0.0913483 -0.00723371 4.63616
-0.313928 -0.0097219 4.46609
0.27512 0.0159814 4.61843
-0.390712 0.0154856 4.48173
0.235843 0.0209413 4.57547
-0.264415 0.0191916 4.46601
0.334326 0.0424909 4.6795
0.268518 0.0426682 4.62533
0.327748 0.0534906 4.67082
0.271116 0.0543472 4.61331
0.254823 0.0646937 4.67477
0.268476 0.0685171 4.67255
0.273046 0.0755407 4.63769
0.169488 0.0759536 4.62666
-0.240666 0.0910065 4.63626
-0.220055 0.0932654 4.61817
-0.260932 0.0923318 4.56956
-0.230379 0.0988785 4.66254
-0.0252622 0.100433 4.65798
0.098424 0.0994767 4.62484
-0.240741 0.107809 4.62893
-0.0150302 0.110035 4.63863
0.0935623 0.110464 4.62289
-0.00569786 0.117821 4.64402
-0.00753647 0.133247 4.6487
-0.00246577 0.131139 4.59689
0.101917 0.133159 4.59294
0.117864 0.137647 4.60458
-0.0707641 0.14096 4.60356
-0.387452 0.150984 4.55381
-0.137318 0.152668 4.60016
-0.0928863 0.152203 4.60144
0.137135 0.170315 4.63578
0.106881 0.183234 4.65556
0.120183 0.181554 4.6337
-0.289086 0.191426 4.57086
-0.255742 0.198826 4.6182
0.515379 -0.393509 4.57893
0.494106 -0.378642 4.5839
0.531896 -0.369102 4.57143
0.161133 -0.26896 4.41181
0.381608 -0.278766 4.46196
0.355484 -0.262003 4.46764
0.382771 -0.265972 4.44464
0.545281 -0.264538 4.57067
0.345718 -0.245677 4.47631
-0.299413 -0.23964 4.43895
0.289278 -0.239647 4.46363
0.378506 -0.241131 4.41906
0.407133 -0.243702 4.4706
0.138882 -0.228492 4.43418
0.313416 -0.22927 4.44268
-0.289851 -0.225785 4.43879
0.262164 -0.223193 4.40785
0.278965 -0.223359 4.45409
0.164686 -0.215869 4.40753
0.251558 -0.213326 4.46605
0.113663 -0.193868 4.66867
0.488589 -0.202385 4.55758
-0.27671 -0.17557 4.458
-0.289364 -0.170541 4.37014
-0.316435 -0.152221 4.4429
0.269769 -0.137891 4.59478
0.303495 -0.135129 4.60501
-0.303691 -0.131013 4.39601
-0.278094 -0.130453 4.40066
0.165615 -0.123641 4.60174
-0.400431 -0.115547 4.39041
-0.244622 -0.097452 4.63426
0.481305 -0.105839 4.65332
-0.211191 -0.0938436 4.68031
0.0917101 -0.0838148 4.16849
0.313479 -0.0991957 4.60607
0.205516 -0.0932009 4.59353
0.330582 -0.0866594 4.58631
-0.243582 -0.0689394 4.62802
0.118642 -0.0681131 4.59809
-0.143611 -0.0637695 4.63023
-0.289494 -0.0644702 4.54678
-0.204593 -0.0596702 4.63101
-0.119003 -0.0600606 4.59466
-0.00656858 -0.0590777 4.63387
0.107849 -0.0562975 4.60751
-0.112301 -0.0459601 4.63
0.472269 -0.0490528 4.6331
-0.188781 -0.0422498 4.61865
-0.166264 -0.0421584 4.61923
-0.0357132 -0.0419245 4.62056
-0.233775 -0.0384832 4.60733
0.467214 -0.0400919 4.62289
0.112411 -0.0342837 4.61035
-0.243959 -0.0276977 4.61484
-0.307595 -0.0293614 4.52613
-0.161361 -0.0238996 4.62913
0.146439 -0.0271567 4.57818
-0.138866 -0.0172454 4.63398
0.188121 -0.0170032 4.60845
0.161711 -0.0109944 4.63644
-0.313525 -0.00991254 4.47661
0.157188 0.00228784 4.63531
0.349502 0.00251792 4.64995
-0.390074 0.0136041 4.49625
0.237963 0.0196091 4.60011
0.272842 0.0425157 4.63453
0.328746 0.0501014 4.67767
0.272094 0.0515993 4.63601
0.290647 0.0573632 4.62245
0.294929 0.0740919 4.69669
-0.4017 0.0719095 4.5008
-0.219196 0.0951128 4.6652
-0.108384 0.0971218 4.64777
-0.0274758 0.0967508 4.64904
-0.105569 0.110963 4.65362
-0.0016917 0.111722 4.60678
0.239098 0.119777 4.6152
0.00157262 0.126407 4.63064
0.0909186 0.126718 4.63299
-0.203311 0.130532 4.59725
-0.189589 0.131916 4.6205
0.175333 0.13302 4.61114
0.121932 0.1349 4.62126
-0.0717743 0.138535 4.60601
-0.390304 0.151599 4.58135
0.134833 0.147647 4.59875
-0.208233 0.155764 4.6297
-0.138354 0.152793 4.60972
-0.082449 0.160312 4.65178
0.105692 0.171507 4.67759
0.137691 0.176473 4.67827
0.110311 0.180656 4.67677
-0.242799 0.187509 4.66593
-0.291042 0.192121 4.60173
0.368674 -0.297318 4.42612
0.364813 -0.27515 4.45976
0.285827 -0.240951 4.47848
0.139493 -0.22914 4.44047
-0.29386 -0.225666 4.44743
0.16386 -0.214319 4.38521
0.245722 -0.21072 4.44297
0.383062 -0.216033 4.41596
-0.249307 -0.179491 4.64423
-0.318995 -0.149701 4.36162
0.304903 -0.137638 4.59691
-0.281912 -0.132466 4.46394
-0.409718 -0.130244 4.4483
-0.311835 -0.128967 4.4269
-0.404033 -0.115921 4.44072
-0.329355 -0.113114 4.37185
0.153602 -0.104053 4.59605
0.122948 -0.0964573 4.65201
0.202133 -0.0930457 4.604
-0.176842 -0.0804233 4.64357
0.32897 -0.0833604 4.64771
-0.196489 -0.0707575 4.61868
0.470749 -0.039993 4.63744
-0.307079 -0.0277501 4.52272
-0.105368 -0.0215537 4.64043
0.133339 -0.0218181 4.64807
-0.313576 -0.00967584 4.46441
-0.244698 -0.000585784 4.61499
0.363243 -0.000876408 4.6561
-0.395975 0.0322838 4.49233
0.253265 0.0691232 4.62263
0.277795 0.071663 4.63834
0.291689 0.0738325 4.70654
-0.241341 0.0858584 4.62057
-0.219369 0.0914636 4.63056
-0.264526 0.0911502 4.55474
-0.230193 0.101154 4.61813
0.172881 0.108932 4.67495
-0.138018 0.11218 4.6415
-0.105867 0.110824 4.62867
0.103394 0.115398 4.62408
0.236782 0.118984 4.61886
-0.240181 0.126801 4.59192
0.000694453 0.126365 4.62967
0.0909901 0.125733 4.60767
-0.20189 0.130899 4.59483
-0.116099 0.132211 4.62547
-0.0781875 0.141103 4.59056
0.101729 0.142849 4.63157
-0.213873 0.155074 4.62046
0.136674 0.180236 4.67878
0.107499 0.183289 4.65644
0.161278 0.182749 4.61201
-0.23865 0.191047 4.64547
-0.289939 0.191573 4.57693
-0.358709 0.210655 4.57697
0.445364 -0.322875 4.51137
0.405907 -0.269273 4.41264
0.154964 -0.253113 4.37443
0.288923 -0.251249 4.38889
0.173385 -0.240896 4.3829
0.27746 -0.237792 4.4137
0.340362 -0.242933 4.47561
0.381322 -0.243353 4.4668
0.143391 -0.232006 4.43815
0.260531 -0.232359 4.46013
0.349114 -0.230097 4.48288
0.36471 -0.228109 4.43583
0.245722 -0.21072 4.44297
0.343005 -0.214491 4.41586
0.383636 -0.216059 4.41603
0.156914 -0.179146 4.67089
-0.263027 -0.158041 4.486
0.162735 -0.126709 4.66934
-0.309393 -0.129539 4.40238
-0.341739 -0.110773 4.41498
0.15314 -0.103456 4.58189
-0.230038 -0.0918527 4.19051
0.313672 -0.0988107 4.60042
-0.217983 -0.0813169 4.65589
0.326404 -0.0839425 4.60364
0.0964402 -0.0429312 4.64866
-0.151208 -0.0381188 4.60657
-0.0173392 -0.0358748 4.61004
0.326937 -0.0334146 4.61478
-0.106785 -0.0229607 4.65482
0.134937 -0.024944 4.62834
0.381122 -0.0171466 4.68517
0.153495 0.00550541 4.60418
0.359586 0.00959521 4.68504
0.231851 0.0165338 4.576
0.277935 0.0235232 4.60143
0.266619 0.0443091 4.60927
0.242524 0.0529929 4.54892
-0.238113 0.0865766 4.63336
-0.199285 0.100242 4.65963
-0.125985 0.0982176 4.64359
0.174135 0.109418 5.23603
-0.106735 0.110879 4.6427
-0.0364578 0.110538 4.64472
0.0718849 0.117089 4.6478
0.23659 0.121161 4.68317
-0.119686 0.130234 4.64019
-0.00475211 0.128506 4.61023
0.0912952 0.13045 4.65198
0.098219 0.142114 4.61602
0.131691 0.148125 4.61308
-0.136903 0.152635 4.59647
-0.104881 0.152211 4.59589
0.10557 0.181708 4.62598
0.156244 0.181148 4.60719
-0.238422 0.190719 4.63028
-0.391978 0.200259 4.60811
0.233021 -0.289328 4.42485
0.349163 -0.286904 4.53829
0.357181 -0.286404 4.30223
0.386203 -0.256704 4.37984
0.183085 -0.243331 4.42136
0.144832 -0.229936 4.42446
0.361131 -0.232327 4.38162
0.191804 -0.222384 4.43555
0.393826 -0.224878 4.48351
0.246639 -0.211843 4.45956
0.342257 -0.215543 4.43221
0.427074 -0.218246 4.4843
-0.246473 -0.183971 4.67728
-0.283459 -0.167417 4.37102
-0.257759 -0.141778 4.4698
-0.287998 -0.138729 4.45316
0.167959 -0.128145 4.66762
-0.236574 -0.10438 4.67433
0.316851 -0.094436 4.60256
0.0905071 -0.0597463 4.61112
0.0964402 -0.0429312 4.64866
-0.133 -0.0182831 4.67117
-0.106576 -0.0210338 4.61575
0.188136 -0.0161676 4.59429
0.126841 -0.00425664 4.645
-0.242217 0.00293369 4.63305
0.180448 0.0184954 4.5844
-0.279097 0.0160754 4.46216
-0.263452 0.0309665 4.46148
0.273046 0.0512155 4.67503
-0.391515 0.0621922 4.45223
-0.318629 0.0689254 4.45486
0.262786 0.0815844 4.63592
-0.125177 0.0969578 4.66122
0.152295 0.0971787 4.67073
0.120154 0.102559 4.61144
-0.146682 0.111182 4.64076
0.238106 0.119498 4.61433
-0.00798146 0.131625 4.60073
0.184239 0.136451 4.66829
-0.100752 0.155544 4.61958
0.48185 -0.274177 4.48761
-0.259734 -0.236957 4.4577
0.498144 -0.204678 4.55538
0.319819 -0.172198 4.61769
-0.26541 -0.191348 4.46618
0.47406 -0.106082 4.61695
0.446614 -0.0984954 4.61661
-0.246675 -0.0834652 4.61623
0.374997 -0.0757592 4.63609
0.161517 -0.0721037 4.5901
0.148316 -0.0127268 4.61436
0.165355 9.81179e-05 4.60175
0.242436 0.0385068 4.60137
0.272813 0.0651076 4.6313
-0.00911687 0.103355 4.62235
-0.259261 0.0875774 4.54899
-0.0137721 0.126774 4.60567
0.361566 -0.214875 4.4759
0.479557 -0.112319 4.63396
0.475393 -0.0911874 4.62096
0.241492 -0.0832614 4.60359
-0.242062 -0.00170731 4.61485
0.473405 -0.101288 4.61821
0.474336 -0.0882511 4.6308
0.101954 -0.0724956 4.62442
0.109134 0.161585 4.62377
0.46864 -0.351209 4.53759
0.526966 -0.334234 4.57034
-0.391686 -0.24533 4.43366
0.35226 -0.237211 4.47346
0.382287 -0.228279 4.45838
-0.262674 -0.0629596 4.55411
0.258988 -0.0168896 4.59478
0.0935855 0.112768 4.61521
0.125351 0.188515 4.63148
0.389455 -0.293679 4.48251
0.26427 -0.229673 4.47445
0.521173 -0.210893 4.56142
-0.32461 -0.156759 4.42581
-0.272248 -0.0173481 4.53357
0.185696 -0.00116952 4.60424
0.237611 0.0164909 4.60176
0.351416 -0.267832 4.47261
0.479579 -0.191828 4.53364
0.440335 -0.0988595 4.63051
0.201516 -0.0897197 4.60033
-0.29286 -0.0632187 4.55276
0.466427 -0.0366554 4.63383
0.259188 -0.0191619 4.59743
0.12519 -0.00227673 4.63497
0.171725 0.0160691 4.60178
0.102849 0.180547 4.62867
-0.403237 -0.12975 4.45112
-0.316854 -0.133873 4.41807
0.311824 -0.0967714 4.58605
0.321683 -0.0299084 4.59723
0.254248 -0.0154058 4.59681
0.257005 0.080181 4.62411
0.122514 -0.182374 4.59482
-0.0856607 -0.046366 4.60244
-0.304342 -0.0230881 4.53402
0.483628 -0.35101 4.53767
0.526605 -0.337911 4.56185
0.534614 -0.332237 4.57735
-0.252397 -0.280212 4.64453
0.321008 -0.278237 4.48326
0.343241 -0.26756 4.48126
-0.278844 -0.260296 4.48177
-0.149305 -0.250355 4.49012
0.359698 -0.260904 4.49226
0.151606 -0.250587 4.4539
0.256524 -0.239167 4.48663
-0.157448 -0.229539 4.5015
0.362116 -0.236516 4.50121
-0.243624 -0.23212 4.47052
-0.237513 -0.213375 4.48237
0.52411 -0.207826 4.56637
-0.2611 -0.198859 4.48248
0.230611 -0.203637 4.47009
0.32051 -0.142836 4.59764
0.258971 -0.130447 4.59503
-0.252975 -0.0998482 4.62594
-0.237302 -0.0996462 4.62603
-0.267639 -0.110277 4.57676
0.476384 -0.101585 4.6166
0.459148 -0.0865963 4.77567
-0.24661 -0.0861651 4.6054
0.104611 -0.0800727 4.61684
0.07883 -0.0739568 4.60497
0.0915984 -0.0740338 4.60519
0.0744109 -0.0617588 4.60967
-0.137575 -0.0586196 4.59818
-0.00997091 -0.0547197 4.60053
0.112702 -0.0577239 4.5925
-0.131445 -0.0498653 4.59979
0.404186 -0.051435 4.60624
0.082329 -0.0421053 4.60612
0.328294 -0.0331772 4.59311
-0.120158 -0.0210082 4.6128
0.37003 -0.0228585 4.6082
0.174996 -0.0100242 4.60388
-0.347387 -0.0294792 4.49153
0.125257 -0.00101798 4.61635
-0.267302 -0.0056943 4.5171
-0.300647 0.0125446 4.50724
0.259632 0.0335697 4.59437
0.251895 0.0401027 4.59802
0.331905 0.0462291 4.61469
0.272993 0.0580817 4.60599
0.129972 0.0813197 4.65642
0.172173 0.0793037 4.60038
-0.134307 0.0945795 4.6111
0.0998333 0.0998799 4.61947
-0.197224 0.101446 4.61935
-0.0627248 0.106318 4.60016
-0.00527423 0.106121 4.601
0.102429 0.106327 4.60272
-0.0239745 0.10784 4.60034
0.198218 0.109975 4.60918
-0.125222 0.111942 4.6009
-0.211478 0.114946 4.59798
0.169673 0.116464 4.60869
-0.0333461 0.121526 4.59642
-0.359095 0.123082 4.56142
0.0704693 0.127237 4.59743
0.17203 0.13036 4.60236
-0.132511 0.129569 4.58772
-0.19968 0.13229 4.58218
-0.113152 0.151047 4.5894
-0.24853 0.183007 4.62083
-0.240291 0.185298 4.60216
0.127404 0.184493 4.61805
0.145798 0.179839 4.59737
-0.254666 0.192427 4.61641
-0.368962 0.199709 4.56427
-0.36274 0.207231 4.5726
0.486945 -0.358111 4.5451
0.531187 -0.325141 4.57045
0.539176 -0.24375 4.56293
-0.0179764 -0.234826 4.47439
0.346089 -0.238346 4.5
0.336799 -0.236865 4.47847
-0.359488 -0.234048 4.44324
0.370498 -0.217103 4.49126
0.361911 -0.209595 4.47951
0.316699 -0.128217 4.59781
0.475514 -0.089634 4.63441
0.0955125 -0.0781296 4.61006
0.241006 -0.0842424 4.60082
-0.152359 -0.0632781 4.60217
0.451196 -0.0309309 4.64236
0.319973 -0.0376565 4.59601
0.175994 0.0162469 4.58974
0.281743 0.0732385 4.63092
-0.24085 0.0898663 4.61309
-0.206621 0.0933638 4.60815
-0.0054272 0.0940686 4.60868
-0.225087 0.100263 4.61226
-0.113486 0.103655 4.60747
-0.219664 0.107096 4.59858
0.00415506 0.126917 4.59402
-0.190134 0.131105 4.58035
0.102876 0.146649 4.59577
0.163474 0.18448 4.59894
-0.288581 0.194813 4.56621
-0.363881 0.206106 4.556
0.530553 -0.36754 4.57535
0.531316 -0.334387 4.57439
0.520851 -0.330895 4.56708
-0.292553 -0.236007 4.47676
-0.261454 -0.232292 4.48955
0.256337 -0.229767 4.48546
0.334359 -0.234653 4.47974
-0.131222 -0.202379 4.49916
-0.25932 -0.187628 4.47644
0.294501 -0.136532 4.60111
-0.0757894 -0.0858852 4.61716
0.159891 -0.0572079 4.58733
-0.160962 -0.0236321 4.6121
0.077858 -0.00807158 4.63474
-0.272725 0.0233671 4.51279
-0.00542842 0.0956042 4.6085
-0.259407 0.0892257 4.55313
-0.2342 0.11211 4.60547
-0.215337 0.112632 4.59976
0.169771 0.11416 4.61962
0.170231 0.129232 4.57786
-0.370349 0.199798 4.57752
0.471075 -0.348471 4.55221
0.528864 -0.331584 4.56788
0.382826 -0.286055 4.48259
0.377404 -0.264831 4.4762
0.330121 -0.244205 4.47876
0.380365 -0.244768 4.47221
0.150093 -0.237044 4.43217
0.369946 -0.22192 4.49312
0.384141 -0.228152 4.45876
0.164527 -0.209167 4.48451
0.381318 -0.21102 4.47511
-0.244631 -0.0945285 4.62718
-0.210042 -0.0941362 4.62739
-0.208218 -0.0799366 4.60697
-0.257534 -0.0737348 4.58704
-0.328915 -0.108259 4.4376
-0.263285 -0.0641708 4.54982
-0.121686 -0.0390401 4.60488
0.467553 -0.0360049 4.622
0.371222 -0.0197807 4.60858
0.25983 -0.0183967 4.58902
0.147463 -0.00338141 4.59876
-0.273126 -0.00562785 4.52546
0.272814 0.0175091 4.59359
-0.272052 0.00223484 4.50463
0.16577 0.0761346 4.6025
-0.240916 0.0869213 4.60962
0.17855 0.123969 4.62626
-0.287648 0.191922 4.55865
-0.382915 0.198614 4.55922
0.413947 -0.371096 4.65789
0.522421 -0.390434 4.58146
-0.251326 -0.28472 4.67707
0.525209 -0.323972 4.54932
-0.308526 -0.277592 4.48068
0.262866 -0.22786 4.47718
0.37227 -0.22622 4.48365
0.360133 -0.212188 4.50698
-0.244242 -0.108827 4.62257
0.0900611 -0.0887356 4.62922
0.104484 -0.0625925 4.60644
-0.292017 -0.064596 4.56035
-0.0939695 -0.0434774 4.58786
-0.176112 -0.018188 4.61501
0.134812 -0.0223707 4.60344
0.257314 -0.0177676 4.59133
0.162404 -0.00168681 4.59696
-0.398467 0.0713311 4.50125
-0.00171678 0.0933855 4.60619
0.068908 0.0934444 4.60739
-0.195807 0.111589 4.59042
-0.395323 0.0941472 4.5113
-0.235419 0.121775 4.59491
-0.0674946 0.117994 4.57767
0.176385 0.133342 4.59946
0.0976291 0.166459 4.61669
-0.251002 0.190966 4.58801
0.352639 -0.261945 4.48896
0.313137 -0.227536 4.49641
0.353564 -0.2304 4.49108
-0.281422 -0.16875 4.45813
-0.0946622 -0.0915721 4.6248
-0.131848 -0.0176352 4.61329
0.258021 -0.0194143 4.59841
-0.303229 -0.0223898 4.53898
-0.309045 -0.016822 4.51109
0.172131 0.0175946 4.60244
-0.265684 0.0793687 4.53997
-0.106666 0.0972113 4.61
-0.0143614 0.100457 4.60476
0.154395 0.0900752 4.57009
-0.330784 -0.341327 4.69682
0.144737 -0.259222 4.47095
0.348425 -0.263282 4.48792
0.119249 -0.246097 4.45773
0.38597 -0.260627 4.46304
-0.265556 -0.243935 4.48619
0.305857 -0.158117 4.5886
-0.295067 -0.128447 4.47663
0.103968 -0.0707831 4.60787
-0.292663 -0.0636466 4.55108
0.159523 0.00785938 4.58716
0.329327 0.0454419 4.622
0.246345 0.0491034 4.58571
0.181821 0.100885 4.58729
0.12112 0.123475 4.61211
-0.0806217 0.145017 4.59085
-0.257813 0.192936 4.57813
-0.239141 -0.289613 4.63228
-0.262869 -0.267437 4.49792
0.269518 -0.228925 4.46744
0.231345 -0.211104 4.48114
0.308729 -0.164761 4.58943
-0.250315 -0.122189 4.61401
-0.251079 -0.0983805 4.61294
-0.187678 -0.0694203 4.60643
0.37683 -0.0224426 4.61316
0.253895 0.0464837 4.59551
-0.238061 0.0839712 4.63313
0.137595 0.139396 4.61279
0.367733 -0.268968 4.45193
-0.305471 -0.252943 4.43765
0.199388 -0.224807 4.42729
-0.256526 -0.209686 4.45316
0.306242 -0.0975635 4.60228
0.199333 -0.0938145 4.6016
-0.275078 0.0212401 4.47859
-0.358531 0.207523 4.57385
0.473357 -0.0398415 4.64281
0.31972 -0.0368363 4.59938
0.115978 -0.248103 4.43674
0.528485 -0.21528 4.55972
0.254654 -0.225919 4.47289
-0.293491 -0.00655028 4.48613
0.322398 0.0523534 4.62199
-0.267116 -0.202399 4.47324
0.35514 -0.23559 4.47043
0.338646 0.0364462 4.63
-0.306446 -0.24466 4.43495
-0.346199 -0.202297 4.42963
0.227981 0.0517449 4.61321
0.115775 -0.116331 5.15236
0.350897 -0.229686 4.46265
0.364667 -0.22765 4.46968
-0.402569 0.0697568 4.49405
-0.272455 -0.25379 4.47691
0.17165 -0.241907 4.43536
0.386095 -0.233358 4.46308
-0.0409361 -0.195808 4.49763
0.202731 -0.220299 4.43962
0.318251 -0.205849 4.48009
0.0831538 -0.0557361 4.60872
-0.246029 -0.0423597 4.60075
-0.219466 0.0948519 4.62571
0.0965858 0.104714 4.6262
-0.133098 0.113281 4.59896
-0.106008 0.128324 4.59203
-0.206695 0.135545 4.59875
-0.271993 -0.259062 4.46841
-0.248089 -0.0728204 4.61583
0.174107 0.00894951 4.59702
-0.372717 0.198945 4.57978
-0.308184 -0.319822 4.73701
-0.253763 0.193029 4.59218
-0.376429 -0.337708 4.46086
-0.0391662 -0.226878 4.46636
0.183842 -0.0145134 4.58808
0.156247 0.0888306 4.60096
-0.397214 0.0941493 4.49098
-0.25149 0.15785 4.58779
0.475266 -0.348553 4.53968
0.532685 -0.319725 4.55889
0.37027 -0.272632 4.47609
0.319595 0.0460714 4.61701
0.14609 0.0887804 4.60087
0.162812 0.178967 4.60296
-0.389449 0.198287 4.56648
-0.307543 -0.238432 4.45191
0.279541 0.0575672 4.61345
0.123818 0.10363 4.6103
-0.287909 -0.30883 4.72305
0.365882 -0.226623 4.4726
-0.13981 -0.012406 4.63095
0.0960604 0.164399 4.63759
0.377472 -0.0155705 4.61274
0.243186 0.114321 4.61434
-0.388938 -0.362531 4.83087
0.408035 -0.350157 4.75973
0.365303 -0.33723 4.78747
0.395821 -0.341558 4.73575
-0.314534 -0.282801 4.79566
-0.293704 -0.286071 4.7651
0.492527 -0.36927 4.55334
0.389764 -0.327173 4.6132
0.22122 -0.28616 4.69425
-0.274001 -0.250277 4.76524
0.317048 -0.293869 4.63356
0.52319 -0.329573 4.57257
-0.147014 -0.261507 4.70227
-0.129157 -0.26189 4.69888
-0.0563374 -0.26436 4.68293
0.236882 -0.285195 4.6331
0.470066 -0.323471 4.56903
-0.368644 -0.34753 4.42753
-0.350609 -0.335013 4.43017
-0.362442 -0.334452 4.41326
0.451089 -0.310048 4.51929
0.223286 -0.30574 4.48532
0.2307 -0.306886 4.44893
0.27923 -0.298204 4.45787
0.292978 -0.299682 4.45393
-0.235197 -0.277859 4.48998
-0.282524 -0.295243 4.4383
0.122462 -0.284659 4.46378
-0.409774 -0.297283 4.42018
0.150751 -0.283528 4.4313
0.373226 -0.292388 4.43246
0.321291 -0.268342 4.46042
-0.269283 -0.264752 4.44288
-0.15484 -0.256501 4.45012
-0.302425 -0.260518 4.41662
0.367988 -0.26458 4.42613
0.0271957 -0.244999 4.43825
0.296924 -0.252951 4.43701
0.343156 -0.246001 4.45503
-0.157676 -0.238943 4.44755
-0.0156508 -0.238733 4.43619
0.156131 -0.251722 4.40871
-0.269252 -0.244775 4.41422
0.0994319 -0.235717 4.44005
0.308226 -0.236164 4.45295
0.138376 -0.232296 4.43591
0.486857 -0.204732 4.5336
-0.354696 -0.23543 4.4083
-0.0421024 -0.218975 4.43782
-0.130073 -0.211752 4.44342
0.16521 -0.10642 4.58505
-0.233193 -0.0842159 4.64294
0.106681 -0.0791302 4.63856
-0.19617 -0.0695889 4.63772
0.0966661 -0.0692557 4.64214
-0.322674 -0.159194 4.40485
0.104981 -0.0734219 4.62583
0.174365 -0.0678278 4.62533
0.329756 -0.0741799 4.62025
0.327621 -0.0716677 4.61203
-0.309102 -0.144802 4.40103
0.0792627 -0.0591192 4.62026
-0.299395 -0.133256 4.42098
-0.184581 -0.0536565 4.62125
-0.127324 -0.0509979 4.61397
0.136908 -0.0554847 4.60231
-0.390143 -0.133716 4.38014
-0.111747 -0.0351466 4.6191
0.128699 -0.0371467 4.61334
0.456256 -0.0236412 4.654
-0.132973 -0.00444383 4.63992
-0.0681496 0.000174422 4.64991
0.182194 -0.0152046 4.60628
-0.30632 -0.0295631 4.54361
-0.282595 -0.0279768 4.54971
-0.267839 -0.0117646 4.54408
-0.250774 0.0557174 4.61986
0.247751 0.0507951 4.61097
0.12167 0.094569 4.67158
0.138569 0.0875592 4.63888
-0.220211 0.103451 4.64578
-0.273185 0.0366381 4.47124
0.0779722 0.109943 4.64623
-0.109806 0.113188 4.65323
-0.128046 0.114556 4.64154
0.0725992 0.116071 4.64393
-0.244188 0.116914 4.63163
-0.140638 0.121705 4.64663
-0.120381 0.116214 4.62581
0.0889576 0.120113 4.64241
-0.115476 0.117614 4.62153
-0.135431 0.119321 4.61905
-0.113817 0.130716 4.62002
-0.120034 0.131776 4.61567
-0.0161251 0.135947 4.62274
0.109747 0.165946 4.63245
-0.0756019 0.172498 4.63339
-0.392663 0.207831 4.58331
-0.286443 0.198719 4.5632
-0.391658 -0.357428 4.86914
0.37833 -0.33616 4.77177
0.517359 -0.393662 4.57613
0.490219 -0.371449 4.55364
0.207934 -0.279216 4.70714
0.226765 -0.27724 4.66719
-0.249576 -0.277918 4.50974
-0.33179 -0.286167 4.41348
0.0624606 -0.269891 4.44723
0.36506 -0.273059 4.45608
0.244231 -0.272528 4.39803
0.292447 -0.268536 4.42763
0.044886 -0.249273 4.42954
0.327736 -0.248736 4.45454
0.375616 -0.255293 4.43336
0.0654383 -0.239879 4.43429
-0.139061 -0.231077 4.4347
-0.273416 -0.223361 4.40721
-0.293493 -0.21883 4.41625
0.0863829 -0.0761333 4.65996
-0.203763 -0.0696711 4.63042
-0.249189 -0.0675846 4.62923
-0.0146018 -0.0102187 4.66192
-0.144899 -0.00211773 4.64556
-0.0355312 -0.00215526 4.647
0.365648 0.00326937 4.62267
0.356152 0.00811672 4.61321
-0.314143 -0.00844687 4.50005
0.24137 0.0427532 4.60527
0.101731 0.102283 4.65737
-0.136986 0.107837 4.65218
-0.123654 0.114813 4.64889
-0.141397 0.111578 4.62757
-0.0656454 0.115807 4.6265
0.0720947 0.117144 4.63213
0.103911 0.120909 4.64108
0.0778777 0.117147 4.62821
-0.207294 0.137151 4.59802
-0.2029 0.138084 4.5938
-0.295793 0.174492 4.57818
-0.336121 0.205622 4.57408
-0.400505 -0.394496 4.43861
0.484756 -0.359493 4.56652
0.359411 -0.356009 4.53684
0.477761 -0.355311 4.52689
0.202927 -0.268703 4.70985
-0.194369 -0.262211 4.71052
0.0309109 -0.262863 4.69209
0.306149 -0.29035 4.64026
-0.410194 -0.346652 4.43165
-0.277389 -0.282148 4.57719
0.227053 -0.294846 4.44232
0.133576 -0.26259 4.41547
0.31416 -0.251143 4.45542
0.427163 -0.256039 4.45568
0.153279 -0.254731 4.39479
0.254331 -0.233874 4.45133
-0.280823 -0.238795 4.4201
-0.0320929 -0.079703 4.6621
-0.159183 -0.0785084 4.6476
-0.183468 -0.0742182 4.63973
-0.245721 -0.0589622 4.63618
-0.300233 -0.144479 4.39666
-0.219339 -0.0585544 4.61331
0.102203 -0.058185 4.61825
0.108942 -0.0479796 4.63118
0.0721428 -0.0399146 4.61426
0.109398 -0.0223671 4.64157
0.351374 -7.90116e-05 4.62952
0.250326 0.0525436 4.62194
-0.136625 0.105436 4.65351
-0.209112 0.105934 4.62338
0.132989 0.105909 4.61844
-0.316558 0.0664927 4.49858
-0.0265651 0.117086 4.62647
0.102773 0.120533 4.62867
-0.261609 0.101374 4.55813
0.242997 0.126256 4.62532
-0.349425 0.0809158 4.47328
-0.252531 0.202214 4.63626
-0.288291 0.204423 4.58338
0.344006 -0.328907 4.7262
-0.40686 -0.386048 4.50134
-0.371771 -0.370802 4.42067
0.104052 -0.266355 4.70091
-0.0217897 -0.262727 4.69113
0.212274 -0.255648 4.72867
-0.371309 -0.349546 4.4258
0.211083 -0.27182 4.64461
-0.359294 -0.343606 4.41863
-0.367541 -0.330349 4.4233
-0.275498 -0.293386 4.51957
0.252281 -0.305484 4.45999
0.149032 -0.281924 4.44888
0.336875 -0.281547 4.43807
0.366873 -0.279559 4.45632
-0.289214 -0.248834 4.41283
0.375821 -0.250444 4.43042
0.31067 -0.237133 4.44835
0.0666438 -0.0755203 4.64924
0.145851 -0.0918419 4.61035
-0.00879852 -0.071789 4.63637
0.295361 -0.0866635 4.61157
-0.310728 -0.158354 4.40608
0.105999 -0.0646951 4.62715
0.141713 -0.0782376 4.57504
-0.302989 -0.141475 4.39943
0.0721097 -0.052757 4.62599
-0.140369 -0.0122632 4.63132
-0.0947853 -0.00268711 4.65803
-0.146417 -0.00347733 4.63554
0.185783 -0.0109826 4.60413
0.161712 0.00611443 4.60613
0.346112 0.0146138 4.61343
0.335933 0.0511174 4.62936
0.268268 0.0524687 4.62194
-0.264274 0.0115795 4.4763
-0.241033 0.101221 4.66496
-0.0148039 0.109642 4.62837
0.179793 0.122756 4.61309
-0.0518815 0.139531 4.62466
0.17328 0.137113 4.61754
-0.0714619 0.146604 4.60832
0.421902 -0.371747 4.7266
0.365976 -0.334865 4.77904
-0.295474 -0.286838 4.77165
-0.270938 -0.274685 4.774
-0.299151 -0.280193 4.74539
-0.138097 -0.264816 4.70164
-0.357305 -0.343325 4.42152
-0.261117 -0.274775 4.53903
0.340466 -0.282639 4.45762
-0.275566 -0.272188 4.45053
0.33127 -0.255765 4.45167
-0.0445329 -0.243298 4.44684
0.382668 -0.249178 4.44979
0.503198 -0.203494 4.57438
0.163654 -0.230489 4.41273
-0.278547 -0.218457 4.42057
0.154969 -0.222696 4.41088
0.0640109 -0.0793164 4.64767
0.135497 -0.0691786 4.63938
0.176407 -0.0733882 4.61815
-0.395599 -0.133077 4.43855
0.11331 -0.0185541 4.65693
0.373529 -0.0238726 4.60493
-0.242657 0.00701662 4.64259
0.176477 0.016825 4.61491
0.336379 0.0326714 4.62097
0.318684 0.0509889 4.62887
0.338204 0.0497272 4.62606
-0.136588 0.102167 4.6497
-0.104266 0.10903 4.65759
-0.0286629 0.106515 4.65121
0.123047 0.100477 4.60234
0.184354 0.12132 4.61921
-0.221207 0.143527 4.6272
0.102183 0.144674 4.63869
0.107864 0.189352 4.66037
-0.256799 0.199131 4.61115
-0.392418 0.205121 4.58588
-0.360699 -0.330151 4.84083
0.362649 -0.336157 4.78101
-0.277404 -0.274782 4.76837
0.482472 -0.35759 4.54901
-0.366292 -0.366869 4.46897
0.4662 -0.339851 4.56409
0.0247464 -0.256171 4.68518
0.456818 -0.326152 4.48215
0.238097 -0.289589 4.42546
0.119186 -0.268211 4.38194
-0.22107 -0.0837277 4.64461
-0.0373471 -0.0774229 4.66017
0.0734727 -0.0670596 4.64496
-0.119171 -0.000343364 4.664
-0.305444 -0.0267208 4.54019
0.152574 0.101003 4.61789
-0.139783 0.119968 4.6291
0.0868684 0.13458 4.62691
-0.101783 0.172564 4.63609
-0.407135 -0.361913 4.83103
-0.337787 -0.316813 4.81981
-0.315824 -0.300577 4.79239
0.392913 -0.324645 4.70699
0.300645 -0.306775 4.70072
0.459249 -0.345172 4.54732
-0.243285 -0.256666 4.67773
0.0247625 -0.244882 4.66271
0.46264 -0.325793 4.4808
-0.292414 -0.29109 4.4247
0.13664 -0.293147 4.41496
0.33564 -0.294215 4.4343
0.172789 -0.247331 4.41568
0.361186 -0.244931 4.42271
0.160828 -0.231763 4.42098
0.38414 -0.208924 4.4849
-0.242694 -0.0626921 4.60588
-0.23513 0.107082 4.62861
-0.10713 0.119638 4.62943
-0.236249 0.200977 4.64388
-0.288865 -0.289978 4.76669
-0.279705 -0.273254 4.76205
0.326282 -0.297589 4.71033
-0.253162 -0.27477 4.72846
-0.373527 -0.371121 4.40787
-0.360132 -0.345305 4.43334
-0.256364 -0.258097 4.43817
-0.294928 -0.24448 4.43354
0.0790796 -0.241152 4.43726
0.122975 -0.0950717 4.67703
0.161059 -0.00405844 4.63367
0.182668 -0.00441964 4.61292
-0.279354 -0.0124959 4.54407
0.34534 0.0162275 4.60573
0.290825 0.0708487 4.65364
-0.277879 0.0171494 4.49537
-0.238967 0.110629 4.65677
0.193765 0.120942 4.63005
-0.00153362 0.133929 4.61941
-0.0807951 0.147104 4.62799
0.0926679 0.174371 4.67329
-0.0565874 0.181443 4.6673
